# .PCD v0.7 - Point Cloud Data file format
VERSION 0.7
FIELDS x y z normal_x normal_y normal_z curvature
SIZE 4 4 4 4 4 4 4
TYPE F F F F F F F
COUNT 1 1 1 1 1 1 1
WIDTH 605
HEIGHT 1
VIEWPOINT 0 0 0 1 0 0 0
POINTS 605
DATA ascii
0.73233628 -0.04226784 4.2512426 -0.88245815 -0.40630084 -0.23703846 0.16180508
0.73457485 -0.046950459 4.2510014 -0.87917244 -0.41510865 -0.23396698 0.16584302
0.70325714 0.055247389 4.2672982 0.55923909 -0.82014543 -0.12088464 0.21625157
0.7395376 -0.13230076 4.2661982 -0.011071481 0.87018478 -0.49260119 0.070112929
0.73089159 -0.049691197 4.2701631 0.32690218 -0.94216371 -0.073908523 0.10023151
0.73872185 -0.12515011 4.2692256 -0.031326931 0.9654299 -0.25877342 0.046733983
0.72438949 0.066338748 4.2768869 0.6535849 -0.73122203 -0.19529749 0.23452906
0.73514742 -0.12436552 4.2763395 -0.031326916 0.9654299 -0.25877348 0.046733882
0.75769812 0.29681557 4.2715378 0.63314223 0.32601193 -0.70203072 0.091624074
0.74435586 0.28064081 4.2780228 0.22087449 -0.97518414 0.01517949 0.13444082
0.74984932 0.073795266 4.2948809 0.64489228 -0.62057698 -0.44609204 0.13582315
0.70629436 -0.021926435 4.3041482 0.92527342 0.090931639 -0.36823988 0.15323822
0.74553812 0.060954146 4.2977657 0.89195937 -0.29392493 -0.34353554 0.14528571
0.70880336 -0.024625 4.3153706 0.29974341 0.22985891 -0.92591512 0.17954461
0.71213526 -0.030911475 4.3149233 0.29974297 0.22985895 -0.9259153 0.17954451
0.76187128 0.069550209 4.3058305 -0.79068923 0.053789664 -0.60985011 0.24916431
0.75723881 0.080828555 4.3068228 0.56576526 0.71993804 -0.40199369 0.17982644
0.7084322 -0.016907528 4.3188701 -0.93247753 -0.34817207 0.096238479 0.11254632
0.72327703 -0.097161904 4.316411 -0.65150547 0.64413357 -0.40078989 0.064355314
0.7436344 0.08524207 4.313786 -0.22088818 0.83861607 -0.49792731 0.16934091
0.72127771 -0.090032235 4.322948 -0.31968275 0.86560088 -0.3854064 0.04611636
0.76680058 0.065582477 4.3127403 -0.25495839 -0.78892136 -0.55910587 0.18866111
0.75562829 0.089769468 4.3170333 0.3108077 0.9367494 -0.16093238 0.11946092
0.7669822 0.061494641 4.3151803 -0.2224212 -0.82795954 -0.51479298 0.1113802
0.74845105 0.094156332 4.3200393 0.026333049 0.99205595 -0.12301023 0.13451199
0.76930118 0.074721724 4.3170881 -0.9549256 0.25358555 0.15430942 0.17426707
0.77165896 0.062156878 4.317719 -0.34222031 0.73101318 -0.590343 0.15921485
0.71791041 -0.086727239 4.3317361 -0.3056466 0.82315969 -0.47852707 0.039329387
0.77457803 0.06771037 4.322638 0.45511612 -0.20120375 -0.86740214 0.16464378
0.71114147 -0.086414129 4.3416848 -0.34109461 0.80866235 -0.47929078 0.047436658
0.77943295 0.062241979 4.326118 0.76204056 -0.0085558239 -0.64747274 0.14650244
0.78046513 0.056136295 4.3270402 -0.580459 0.65369177 -0.48554549 0.11854666
0.77349782 0.046903197 4.3299913 -0.59570384 0.67592955 -0.43388486 0.14284375
0.78436828 0.069192633 4.3302126 -0.061182957 -0.87525594 -0.47977465 0.19083306
0.78471357 0.063880771 4.3304057 -0.61191499 0.5106867 -0.60395288 0.15651426
0.6912756 -0.02984501 4.3517532 -0.070505746 0.99471009 -0.074705541 0.13200206
0.7110526 -0.07939367 4.3477592 -0.15757975 0.80754799 -0.56836158 0.049342282
0.7079131 -0.07948897 4.3522854 -0.26708212 0.77433348 -0.57365054 0.057542451
0.6898188 -0.027015042 4.357348 -0.15450183 0.26229432 -0.95253915 0.036381241
0.78698975 0.050261397 4.3373241 0.54717803 0.78739607 -0.28390777 0.2161461
0.69408417 -0.029377146 4.3593163 -0.15450174 0.26229432 -0.95253915 0.036381274
0.79128808 0.056512989 4.3393321 0.31965598 -0.58554476 -0.74495465 0.22736351
0.68484867 -0.027091241 4.365387 -0.15450187 0.26229423 -0.95253915 0.036381278
0.79464895 0.054387294 4.3459969 -0.035480738 -0.94563466 -0.32328954 0.15500271
0.79684663 0.050578121 4.3527765 -0.11190125 -0.99151033 -0.066222377 0.075747274
0.7625522 0.032702003 4.3664603 0.51875162 -0.85007173 -0.09096653 0.11077077
0.7903133 0.29293355 4.3737502 -0.37773111 0.8775273 -0.29540655 0.07520327
0.79363018 0.053809632 4.3920655 -0.60993344 0.68109119 -0.40508768 0.098272204
0.78986716 0.062933773 4.4070296 -0.14741054 0.85710782 -0.49359524 0.078003079
0.86308062 0.31797647 4.390151 -0.072092742 0.91695935 -0.39241326 0.083297111
0.6386624 -0.0056925835 4.4536448 -0.54129291 0.84005994 0.036073186 0.152549
0.638345 -0.00084068143 4.4572601 -0.1219338 0.98935366 -0.079445012 0.17097142
0.63847381 -0.01182805 4.4601712 -0.17387119 0.94433558 -0.27928299 0.077467829
0.63596231 -0.0059512267 4.4712601 0.011192004 0.98073596 -0.1950172 0.11220887
0.63262349 0.00052610663 4.4767332 -0.1890606 0.92990494 -0.31548822 0.074405342
0.63250756 0.0041285031 4.4872804 0.14093302 0.9070738 -0.39667994 0.076922901
0.63148582 0.0041666352 4.492836 0.11232544 0.89768136 -0.42608821 0.071302459
0.62663692 0.014284125 4.5086436 -0.82887286 0.24687669 -0.50201762 0.075929672
0.62532043 0.016165376 4.5145941 -0.75804508 0.24359544 -0.6050033 0.10175047
0.62465596 0.013650551 4.5200815 -0.74128783 0.019485498 -0.67090434 0.14374079
0.62483007 0.01769527 4.526494 -0.67546356 0.43411407 -0.5960654 0.12653647
0.59885156 0.045831017 4.5509663 -0.83915186 -0.48139384 -0.25314835 0.10599422
0.60217178 0.081211537 4.6282606 0.18348141 0.71634799 -0.67318654 0.070864066
0.61235839 0.07691966 4.6274405 0.41972476 0.71592587 -0.55792588 0.058482658
0.60999674 0.081821986 4.6330037 0.35316309 0.70982462 -0.60944635 0.079488084
0.61804581 0.073675171 4.6302972 0.32705688 0.73766661 -0.59066218 0.069601789
0.59591407 0.090646051 4.6382294 0.15732417 0.84206408 -0.51592362 0.055018045
0.59158105 0.095185943 4.6428008 0.14897527 0.96986669 -0.19278207 0.12999111
0.61722058 0.076887563 4.6352334 0.3270568 0.73766661 -0.59066212 0.069601752
0.60041559 0.088303484 4.6412368 0.22675529 0.84414566 -0.48579845 0.062512718
0.61682981 0.080991119 4.6396651 0.34839946 0.74626279 -0.56719446 0.068227969
0.6031388 0.089889862 4.6449041 0.27029404 0.86806482 -0.41641873 0.06422694
0.59307504 0.095194355 4.6509051 -0.065828845 -0.99745816 0.02726944 0.079219297
0.61972427 0.079232849 4.6422243 0.37901905 0.76353323 -0.5228399 0.062368006
0.59667289 0.093414284 4.6503921 0.19500449 0.96541589 -0.17304777 0.04163162
0.6075986 0.087638266 4.6470084 0.28415093 0.85030222 -0.44299489 0.056891788
0.63028383 0.072864167 4.6396427 0.019890673 0.81370467 -0.58093816 0.10283741
0.61761898 0.085363619 4.6525741 0.39623752 0.84962904 -0.34803197 0.02645286
0.61602575 0.088903785 4.6628141 0.260454 0.94126695 -0.21489607 0.02786712
0.63136739 0.082987018 4.6610913 -0.20711872 0.91052216 -0.35784245 0.056522366
0.61833656 0.092125997 4.6672683 0.20540869 0.96363968 -0.17089687 0.024002064
0.6325193 0.086002864 4.6673846 -0.2168726 0.89962423 -0.37900206 0.055437718
0.62552619 0.089361139 4.6710348 0.1044554 0.98010492 -0.16877016 0.03714164
0.62049747 0.092281692 4.6730504 0.19611251 0.95758402 -0.21112217 0.023633
0.61343396 0.097975686 4.6777091 0.11589804 0.94093812 -0.31812429 0.027053362
0.61633229 0.094460323 4.6780295 0.20084336 0.94758976 -0.24846646 0.026227681
0.65678447 -0.18604897 3.988313 -0.93799049 -0.32655376 0.11634662 0.15525155
0.65645629 -0.18242431 3.9937396 -0.79190457 -0.57006162 -0.21889941 0.15361109
0.66266209 -0.2019753 3.9969194 -0.98224527 -0.15066896 0.11177256 0.11949994
0.66282278 -0.19420776 4.0051208 -0.97672778 -0.18531977 0.10797918 0.10177584
0.67176044 -0.20057057 4.0144157 0.73659962 0.66920674 -0.097894207 0.09497083
0.67387462 -0.20923494 4.015594 0.70264786 0.49847138 -0.50775212 0.12988706
0.68772888 -0.2291624 4.0190601 -0.069914803 -0.39348245 -0.91666979 0.17963558
0.41709319 0.30075714 4.0357704 0.33269572 -0.63342381 -0.69863284 0.22151951
0.41349187 0.2689921 4.039773 0.25397587 0.22498822 -0.94067883 0.22000414
0.42204961 0.30012605 4.0392728 -0.4590807 0.73277557 -0.50227976 0.20991322
0.67831653 -0.20488332 4.025454 0.61184818 0.73028433 -0.30385303 0.10942793
0.69212443 -0.23639649 4.0249891 0.37984759 0.0099003045 -0.92499614 0.14049479
0.6831553 -0.2150975 4.0257549 0.80838931 0.38809341 -0.44259492 0.10951301
0.69364727 -0.24120735 4.0254827 0.92801404 -0.074949458 -0.36492804 0.20518073
0.42909527 0.26878995 4.0474958 -0.06843143 0.6024099 -0.79524809 0.085413381
0.43624416 0.28312251 4.0474086 -0.19028941 0.2818813 -0.94038969 0.12760809
0.4361662 0.29856601 4.0483732 -0.15009722 -0.62405741 -0.76682675 0.10917628
0.43445224 0.27011555 4.0490389 -0.16043396 0.59780532 -0.78542328 0.080906689
0.69442606 -0.22222029 4.0351987 0.60236043 0.59941304 -0.52712995 0.14067744
0.7082954 -0.24777958 4.0427628 0.67707568 -0.14853463 -0.72076762 0.06306383
0.67960131 -0.19703725 4.0451465 0.39177793 0.7873928 -0.47594383 0.16099767
0.70920575 -0.25297239 4.0457916 0.76672798 -0.28738368 -0.57405472 0.058489185
0.69441599 -0.21178694 4.0471458 -0.98990947 -0.12483193 0.067054555 0.074821748
0.69610381 -0.2031191 4.0507889 0.7232154 0.65232086 -0.22679701 0.14928293
0.43786699 0.22319786 4.069767 0.61606395 -0.2382087 -0.75081408 0.04747802
0.68650991 -0.19614306 4.0526114 0.698605 0.69611925 -0.16543607 0.17215616
0.46548298 0.28074464 4.0703382 0.57759494 0.13690954 -0.80476069 0.063006073
0.71822888 -0.24608898 4.0546532 0.86353558 0.22464663 -0.45148671 0.070585974
0.71565968 -0.24096881 4.0552707 0.83089077 0.38662821 -0.40017396 0.071968354
0.47361448 0.28057787 4.0781217 0.60730088 0.26389095 -0.74936455 0.053863775
0.71408027 -0.229004 4.0623479 -0.61074018 0.55242801 -0.56729156 0.082929596
0.71890116 -0.2494818 4.0621095 0.95932859 -0.18422306 -0.21389361 0.061865814
0.72099489 -0.24760632 4.0680428 0.90648443 0.33881354 -0.251975 0.052510217
0.71086645 -0.20734657 4.0731812 0.69673049 0.66409934 -0.27118006 0.087239452
0.7231527 -0.25959647 4.0737004 0.81721801 -0.39251474 -0.42200345 0.12678175
0.71393073 -0.22278248 4.0752864 0.62766671 0.36412516 -0.68807513 0.077196099
0.72549659 -0.25178629 4.0785546 0.13701335 -0.95396066 -0.26680771 0.2197828
0.72578186 -0.25588652 4.0819826 0.028713936 -0.64886647 -0.76036036 0.13987021
0.72559702 -0.24748974 4.0854855 0.56091404 0.76111615 -0.32569554 0.10785832
0.72734433 -0.25300708 4.0868568 0.28313282 0.61733162 -0.73398739 0.13161054
0.72660512 -0.24631855 4.0907416 0.6043638 0.73817098 -0.29974645 0.13806364
0.49992859 0.22063297 4.1149716 0.33486363 0.66638881 -0.66617739 0.043414466
0.7287727 -0.25512257 4.0956216 0.74112695 -0.54717028 -0.38901851 0.10958097
0.72843504 -0.24946135 4.0959911 -0.86475611 -0.49972045 0.049762513 0.11026657
0.54179949 0.26293063 4.1177869 -0.31115222 -0.41151172 -0.856646 0.14944938
0.72895622 -0.24740852 4.1010571 -0.88596481 -0.46208328 0.039310403 0.12912677
0.73139924 -0.25457099 4.1032028 -0.97838628 0.14129922 -0.15097938 0.17302439
0.72248703 -0.21462104 4.104116 0.97934008 0.045439515 -0.19704899 0.024122907
0.7225033 -0.19807412 4.1062031 0.97934008 0.045439549 -0.19704895 0.024122894
0.72442877 -0.27683452 4.106607 -0.84492803 0.52750033 0.088544503 0.1363208
0.72840595 -0.26727599 4.1091065 0.88820958 -0.38915187 -0.24422242 0.13635552
0.72421145 -0.21590117 4.1099181 -0.70585001 -0.69448733 -0.13951012 0.0096427621
0.56812429 0.25584313 4.1340933 0.4828113 -0.41403067 -0.77166826 0.01265585
0.73105603 -0.22467908 4.1178808 -0.13723594 0.69560289 -0.70519704 0.0082167052
0.73320031 -0.24290921 4.1195593 0.92211574 0.071235299 -0.3802999 0.021817669
0.73461318 -0.25858834 4.1205392 0.79706013 -0.37075114 -0.47669566 0.16778663
0.73156667 -0.22042181 4.1226277 -0.13723607 0.69560283 -0.7051971 0.0082167331
0.73599261 -0.25198445 4.1238527 0.93284917 0.10961135 -0.34318772 0.014676465
0.73504162 -0.24153528 4.1249666 0.89247185 0.1371216 -0.42975771 0.010754801
0.73401785 -0.23132157 4.125895 0.87497568 0.062110566 -0.48016649 0.011313118
0.53827107 0.2177486 4.148138 0.34815747 -0.84072822 -0.41468346 0.018370157
0.73374665 -0.20896952 4.1324663 -0.45440823 0.6626448 -0.59532768 0.0021069392
0.58501226 0.24648018 4.1527009 0.48634058 -0.61097747 -0.62464345 0.011993879
0.73647964 -0.26114663 4.1370535 0.68516099 0.46154672 -0.56349707 0.077455208
0.73507208 -0.20302564 4.1386852 -0.34006077 0.8225556 -0.4558081 0.050321467
0.74010736 -0.24851316 4.141736 -0.98265696 0.082906008 0.16586706 0.094541244
0.5876568 0.24158901 4.1601729 0.4920429 -0.71564955 -0.49572119 0.0054438636
0.56534988 0.22172439 4.1632667 0.29108408 -0.65569824 -0.69665623 0.026802724
0.55534899 0.21586792 4.1647043 0.41966563 -0.6431731 -0.64047575 0.02574151
0.73810083 -0.25493389 4.1461744 -0.98533547 0.16909671 0.022809694 0.059926927
0.73908556 -0.22606742 4.1464939 0.030165872 -0.86387289 -0.50280571 0.0058598355
0.59215218 0.24263996 4.1653719 0.42673445 -0.78037125 -0.45707592 0.010539871
0.74100119 -0.23918173 4.1486421 0.54724818 -0.08281523 -0.83286315 0.074247792
0.7388348 -0.12155748 4.1490798 0.2820963 -0.69449824 -0.66188663 0.22586185
0.72407991 -0.172957 4.1512604 0.80232644 0.39486864 -0.44760591 0.072699949
0.56045145 0.31193957 4.1709161 -0.32757097 -0.92819321 -0.17650646 0.090614408
0.56320375 0.21445891 4.1725073 0.51525968 -0.51643091 -0.68396389 0.04948438
0.60270166 0.27449456 4.168107 0.35704142 0.28955191 -0.88807714 0.03823927
0.73890096 -0.19382125 4.1532245 -0.85806012 0.50760603 0.077903055 0.069282345
0.73936653 -0.2447381 4.1533542 -0.82901502 0.55674452 0.052627154 0.1632636
0.7403208 -0.23045616 4.1537251 -0.97532141 -0.16281617 -0.14912762 0.11452634
0.74011725 -0.23740183 4.153831 -0.96933037 0.18899718 -0.15709455 0.081456058
0.7265982 -0.17237514 4.1558232 0.68692493 0.44476765 -0.57473117 0.10865401
0.56246036 0.20150955 4.1780047 0.52874511 -0.50187576 -0.68450665 0.040215932
0.57168341 0.30070314 4.1785674 -0.72506553 -0.51178795 -0.46081764 0.12117328
0.75754529 -0.13372184 4.1570382 0.87708616 -0.34004015 -0.33925295 0.11922737
0.75704926 -0.14203502 4.1579161 0.60898453 -0.5215947 -0.59755903 0.092621498
0.61726665 0.26353797 4.1775432 0.78296781 -0.45111683 -0.42831659 0.048262455
0.74222976 -0.20007509 4.1634617 0.91828871 -0.21055149 -0.33528194 0.03076886
0.59853762 0.23318101 4.1830478 0.55278397 -0.70767629 -0.44002745 0.010893951
0.73848897 -0.23561859 4.1671433 -0.94881332 0.27966318 -0.14677094 0.10135183
0.74114764 -0.22234672 4.1678576 -0.98420489 0.11641654 0.13337192 0.042065911
0.74014437 -0.16346993 4.1685677 0.095535859 -0.31308547 -0.94490767 0.10003931
0.74379349 -0.18986529 4.169405 -0.97282284 0.21881786 0.075727254 0.010845352
0.74137419 -0.2110284 4.1705322 -0.9984082 0.049944405 -0.026204126 0.14905684
0.59961271 0.23447919 4.1889915 0.55278379 -0.70767635 -0.44002745 0.01089388
0.76234514 -0.13542269 4.1699181 0.65420157 -0.65687072 -0.37488824 0.12352457
0.73911655 -0.22966918 4.1739297 -0.95053864 0.2901088 -0.11096532 0.094429024
0.74347734 -0.20602161 4.1737142 0.90318573 -0.34932604 -0.24945293 0.05744049
0.75035375 -0.10129205 4.1734328 0.59905237 0.58661401 -0.54499561 0.028127635
0.74155098 -0.21066523 4.1775107 0.63351756 -0.74416542 -0.21183316 0.11263186
0.74740988 -0.18381906 4.1776605 -0.99106795 0.125423 0.045314439 0.065387458
0.74644494 -0.17829008 4.1777983 0.95113868 -0.25022554 -0.18089332 0.07552141
0.76015145 -0.14583975 4.1759472 0.85754019 -0.43918002 -0.2678538 0.014622388
0.73815519 -0.23026751 4.1793475 -0.37871069 0.76310378 -0.52368975 0.043437511
0.59662718 0.30518824 4.1978679 0.37388346 0.83516145 -0.40338144 0.16021559
0.76254964 -0.13866816 4.1760149 -0.92183554 0.37756521 0.087542586 0.041213319
0.74511772 -0.19140425 4.1797128 -0.98472464 0.073317155 0.15793061 0.11852913
0.74144524 -0.2123301 4.1830769 -0.99499112 0.041781731 -0.090812422 0.02869284
0.75139838 -0.096346378 4.1815028 -0.23879106 0.73112178 -0.63909292 0.049667306
0.76277083 -0.14234944 4.1802521 -0.95284665 0.30319864 0.012406153 0.018453052
0.74693108 -0.090283386 4.184299 0.58902282 0.54332119 -0.5982092 0.032022435
0.74577284 -0.19186123 4.1847901 -0.98132372 -0.11118656 0.1569753 0.099919207
0.74993557 -0.1683539 4.1856594 -0.95327032 0.16008183 -0.25622153 0.0750807
0.75716496 -0.15303439 4.1850181 -0.039722178 -0.50081813 -0.86464065 0.12608597
0.73910493 -0.20537214 4.1880264 -0.98299688 -0.1836109 -0.0020550648 0.018363047
0.75232905 -0.095885783 4.1867995 -0.12673481 0.65595937 -0.74408031 0.058938429
0.74823141 -0.17875598 4.1879401 -0.86127347 0.48982331 0.13520782 0.048072342
0.74111325 -0.21003111 4.1909785 -0.9728719 -0.22254039 0.06321454 0.10856752
0.76318425 -0.13466346 4.1876125 -0.99862087 -0.011146368 0.051304992 0.016384762
0.75238258 -0.086643308 4.1914272 0.074319527 0.6841709 -0.72552526 0.091054007
0.74098659 -0.20903957 4.1963043 -0.984833 -0.12047631 0.12485813 0.10957535
0.76388478 -0.13770299 4.1930776 -0.62733239 -0.77483654 -0.077990063 0.15242073
0.74626619 -0.18798421 4.1960492 -0.9697541 0.23783188 -0.054890629 0.043077812
0.74195415 -0.069707192 4.1982832 0.33302879 0.62835342 -0.70303899 0.043552529
0.7442137 -0.19246905 4.1986523 -0.96314859 0.17641617 -0.20303199 0.032859873
0.65420306 0.27440089 4.2120805 -0.29720569 -0.95201027 0.073111497 0.12390357
0.74513745 -0.17255859 4.2035365 -0.95716178 0.15319121 -0.24571073 0.11523858
0.74527878 -0.068775825 4.207912 0.79357672 0.52743816 -0.30338916 0.13042803
0.7436018 -0.056021847 4.216291 -0.99649215 -0.033390526 0.076736875 0.088162012
0.67744142 0.27566299 4.2263594 0.34643826 0.77170593 -0.53333896 0.12685743
0.74435759 -0.16689955 4.2173238 -0.91278481 0.035875373 -0.40686232 0.099717543
0.73744559 -0.18654202 4.2188082 -0.66223007 0.21600467 -0.71749091 0.10348703
0.64041656 0.1472449 4.2345147 -0.56891477 0.31856981 -0.75818807 0.12525776
0.75874913 -0.1345616 4.2224355 -0.40482956 0.78740263 -0.46487644 0.053831872
0.72972381 -0.17415412 4.2368784 -0.76849264 -0.57179481 -0.28717536 0.16313443
0.74081606 -0.056166206 4.2357416 -0.84493762 -0.49621707 -0.19962236 0.095904663
0.75776011 -0.12929387 4.2332907 -0.28272688 0.8682192 -0.40775108 0.048436869
0.73429847 -0.042192683 4.250896 -0.87917292 -0.41510823 -0.23396628 0.16584289
0.73653263 -0.046869837 4.2506552 0.94301617 -0.13089557 -0.30591974 0.13494061
0.74595255 0.30426243 4.2601032 0.14640398 0.98427266 -0.098859116 0.093372591
0.75044841 0.3014214 4.2614689 0.042082891 -0.66328591 -0.74718189 0.11082137
0.75040829 0.29519913 4.2629824 0.211155 -0.14901289 -0.96602726 0.22210279
0.72489798 0.32800046 4.268465 -0.79150438 -0.6111002 0.008797992 0.072552055
0.73341173 -0.049559023 4.2696939 -0.35621357 0.93432546 -0.012156449 0.085908286
0.74070638 -0.12505776 4.2688556 0.0090722525 0.96634758 -0.25707978 0.040358014
0.72660118 0.066222161 4.2764702 0.52735966 -0.79983842 -0.28661883 0.24058734
0.73778826 -0.12414899 4.2758389 -0.031326935 0.96542996 -0.25877342 0.046733983
0.74683338 0.28010514 4.2775559 -0.38112414 0.87241572 -0.30599889 0.13474511
0.76719773 0.29703733 4.275527 0.21097894 0.73694682 -0.64218163 0.13376051
0.76872689 0.30466217 4.2778301 0.11683236 0.97787017 -0.17355178 0.18740967
0.77350241 0.29898164 4.2819242 -0.23526804 -0.97037077 -0.05504109 0.18032132
0.74592203 0.078673005 4.2889962 0.0066510844 -0.99557757 -0.093707636 0.045734189
0.75269371 0.073742792 4.294311 0.73478985 -0.28490755 -0.61555791 0.16299807
0.74801636 0.060952671 4.297266 0.8512513 -0.2071407 -0.4821451 0.18204479
0.78138304 0.30953953 4.2908592 -0.49679232 -0.85132933 -0.16862907 0.18703532
0.78299636 0.30892032 4.2967038 -0.38718534 -0.88470757 -0.25957674 0.15198408
0.71453989 -0.030752402 4.3144259 0.90695739 -0.34768528 -0.23778829 0.2053618
0.77960879 0.29480496 4.2999635 -0.7627852 -0.64497632 0.046522263 0.30676877
0.76043481 0.084800981 4.3055058 0.52167618 0.74303168 -0.41923487 0.077542186
0.71152836 -0.021488834 4.3168411 -0.99013478 -0.094992481 0.10300279 0.11357138
0.76528525 0.066905931 4.3060098 -0.39146611 0.89905918 -0.19607876 0.24906538
0.71127146 -0.016848417 4.3182788 -0.93247753 -0.34817213 0.096238509 0.11254629
0.72668099 -0.096910089 4.315701 -0.65150541 0.64413357 -0.40078989 0.064355314
0.78695923 0.30278546 4.3054428 0.55814999 0.81420135 -0.15982741 0.22378777
0.72430235 -0.089841194 4.3223076 -0.31968263 0.86560094 -0.38540643 0.04611643
0.7696538 0.065531828 4.3121376 -0.62228292 -0.73148888 -0.27872539 0.2027296
0.76750124 0.058904428 4.3127265 0.18736726 0.95082366 -0.24663296 0.20085482
0.7996397 0.31972682 4.3093147 -0.44053108 0.59241742 -0.67451757 0.13293301
0.77244192 0.07465589 4.3164167 0.81494266 0.18656141 -0.54869241 0.12829208
0.77540123 0.062107701 4.3169169 -0.23650482 0.93308711 -0.27094993 0.18479709
0.7212469 -0.086523272 4.3310165 -0.30564684 0.82315952 -0.47852722 0.039329473
0.77871519 0.070438795 4.3221121 0.61877936 -0.23944697 -0.74818265 0.1418241
0.76575392 0.083523899 4.3283091 -0.52036667 -0.69319886 -0.49869224 0.123919
0.78292829 0.062186621 4.3253503 -0.022649504 -0.20224878 -0.97907221 0.21189547
0.78395665 0.056102399 4.3262715 -0.49277124 0.46732166 -0.73402107 0.20721655
0.78786367 0.0691524 4.3294353 0.54952937 0.68641478 -0.47628999 0.22842568
0.78794843 0.063822784 4.3295045 -0.38289627 0.55611223 -0.73765135 0.19562188
0.714306 -0.079188868 4.347034 -0.20963602 0.84318805 -0.49506238 0.046920497
0.80378515 0.30075395 4.3275323 0.56463546 -0.7591303 -0.32389477 0.097056821
0.71148586 -0.079307437 4.3514824 -0.15418971 0.86045319 -0.48563969 0.053007692
0.79087436 0.050225683 4.3364449 0.65540081 0.62045699 -0.43067721 0.24289693
0.69726604 -0.029272979 4.3585949 -0.54913539 0.12433863 -0.82643223 0.078061506
0.78565937 0.28490761 4.3392234 -0.021338262 -0.98999816 -0.13945724 0.13433011
0.79867792 0.054343294 4.3450632 0.13792963 -0.91855186 -0.37045622 0.12384342
0.80078262 0.050550524 4.3518496 -0.18823217 -0.98205334 0.011830242 0.084710456
0.81029135 0.30152476 4.350265 -0.41916019 0.8278296 -0.37283081 0.11861179
0.8154884 0.30649194 4.3515487 -0.67317849 0.55276918 -0.49119952 0.11900033
0.64309102 -0.0056463755 4.452467 -0.12945582 0.97261375 -0.193038 0.14500834
0.64187247 -0.0010847604 4.4563179 -0.42827746 0.90273148 -0.040672548 0.16183932
0.64262474 -0.011780648 4.4590545 -0.54129344 0.84005958 0.036073431 0.15254897
0.64016366 -0.0059095109 4.4701085 -0.17552999 0.96702224 -0.1845459 0.1097815
0.6391744 -0.00057946198 4.4778934 0.070775896 0.9776001 -0.19821408 0.10469666
0.63764942 0.004210812 4.4858336 0.14093313 0.9070738 -0.39668 0.07692305
0.63594317 0.0042364364 4.4915709 0.11232543 0.89768136 -0.42608821 0.071302421
0.6317997 0.01263273 4.5081959 -0.82887274 0.24687684 -0.5020178 0.075929783
0.62938905 0.013640271 4.5186815 -0.7580449 0.24359567 -0.60500336 0.10175046
0.60423017 0.045845989 4.5493155 -0.83915204 -0.48139337 -0.2531485 0.10599409
0.61337793 0.042037643 4.5503311 0.4734194 0.80689156 -0.3532705 0.11639211
0.6090185 0.050310656 4.5606961 0.1489585 0.93278819 -0.32820356 0.10070955
0.62778878 0.058210377 4.5964389 0.2071425 0.90672565 -0.36734253 0.016199451
0.62461489 0.063675426 4.6026263 0.3887051 0.8952384 -0.21784531 0.081194565
0.60745782 0.088109493 4.6387744 0.27249902 0.84720588 -0.45605537 0.061610546
0.63788742 0.072743945 4.6369514 -0.074886985 0.84972733 -0.52187687 0.079568505
0.62193555 0.091324233 4.6616335 0.067074314 0.96758682 -0.24346788 0.041753206
0.63955879 0.082792446 4.6581068 -0.30172813 0.85794276 -0.41580552 0.054791927
0.65303975 -0.18640687 3.9884744 -0.93799055 -0.32655373 0.11634653 0.15525153
0.65298808 -0.18280315 3.993897 -0.79190439 -0.57006186 -0.21889959 0.15361127
0.66882616 -0.20091873 4.0145793 -0.62785178 -0.77774936 0.030134708 0.098197587
0.67093742 -0.20958333 4.0157599 0.78211993 0.48522142 -0.39095837 0.12357774
0.68494022 -0.22951317 4.0192237 -0.082530692 -0.7044751 -0.70491374 0.19297242
0.67553359 -0.20519075 4.0256248 0.47782373 0.81056917 -0.33861804 0.08302135
0.68954831 -0.23676085 4.025147 0.60831606 -0.072860248 -0.79034358 0.11195449
0.69104713 -0.24157459 4.0256429 0.92801374 -0.074949838 -0.36492881 0.20518091
0.42666838 0.30020082 4.0469489 0.58948147 -0.60044348 -0.54035103 0.28606448
0.69869411 -0.24310687 4.0362773 0.70624739 0.45563287 -0.54186106 0.13973895
0.69208717 -0.21865983 4.0377717 0.7232011 0.42170519 -0.54694152 0.11839432
0.69219053 -0.21202734 4.0473089 -0.98990935 -0.124832 0.067054667 0.074821837
0.46112731 0.28121898 4.0706682 0.57759476 0.13690916 -0.80476093 0.063005954
0.71628457 -0.24633333 4.0548038 0.87409407 0.26715308 -0.4056955 0.074212201
0.71376371 -0.24123168 4.0554171 0.83089077 0.38662815 -0.4001739 0.071968377
0.71933764 -0.24782735 4.0681825 0.91337627 0.31687078 -0.25561067 0.050719164
0.72036397 -0.2511709 4.0713725 0.89409184 0.062531739 -0.44349682 0.073087245
0.70905292 -0.20756923 4.0733376 0.69673038 0.66409951 -0.27118012 0.087239504
0.711236 -0.21465923 4.074687 0.72141474 0.59472668 -0.35476887 0.10570715
0.71256429 -0.22296391 4.0754061 0.61880231 0.34913573 -0.70369595 0.075203866
0.72415036 -0.25197116 4.0785246 0.17274904 -0.94550627 -0.27599943 0.19369969
0.72405803 -0.25613186 4.08214 -0.21538003 -0.71297461 -0.66729206 0.19092527
0.7251426 -0.24649803 4.0908818 0.60436386 0.73817104 -0.29974642 0.13806364
0.48674396 0.30680564 4.1129131 0.87920392 -0.46491084 -0.10420357 0.044618204
0.71853471 -0.209558 4.0949326 0.97934002 0.045439493 -0.19704916 0.024122879
0.72708476 -0.24966154 4.0961242 0.80659616 0.57217175 -0.14839844 0.098850131
0.72797543 -0.24754497 4.1011558 -0.88596487 -0.46208319 0.039310429 0.12912673
0.73042399 -0.25473884 4.1033015 -0.97838646 0.14129926 -0.15097864 0.17302427
0.72136354 -0.21474943 4.1042314 0.97934008 0.045439512 -0.19704896 0.024122844
0.72161585 -0.19806379 4.1062965 0.97934008 0.045439512 -0.19704895 0.024122842
0.72327465 -0.21602288 4.1100163 -0.70584959 -0.69448769 -0.13951057 0.0096427621
0.72253025 -0.27840123 4.1108785 -0.73289078 0.66753525 -0.13140714 0.084218904
0.7302649 -0.22476794 4.1179676 -0.13723569 0.69560289 -0.70519716 0.0082166493
0.73257643 -0.24298392 4.1196184 0.92211574 0.071235321 -0.38030007 0.021817632
0.73117846 -0.22046556 4.1226306 -0.1372368 0.69560313 -0.70519674 0.0082170144
0.73545581 -0.25205395 4.1239133 0.93284917 0.10961133 -0.3431876 0.014676417
0.73444951 -0.24153566 4.1250348 0.90013796 0.12596062 -0.41699603 0.010858386
0.73350137 -0.23134999 4.1259551 0.87497574 0.062110607 -0.48016638 0.011313152
0.73323905 -0.20901665 4.1325264 -0.45440847 0.66264474 -0.59532756 0.0021069678
0.73622572 -0.26115444 4.1370845 0.61036664 0.54990262 -0.57014012 0.058517568
0.73886108 -0.22609548 4.146522 0.030165898 -0.86387289 -0.50280571 0.0058597727
0.74020755 -0.23928773 4.1487422 0.48425594 -0.081953138 -0.87107968 0.13561639
0.73807532 -0.12165603 4.1491752 0.28209594 -0.69449925 -0.66188574 0.22586165
0.73854256 -0.19382872 4.1532707 -0.85806012 0.50760609 0.077903047 0.069282345
0.74065566 -0.23035063 4.1536832 -0.97532141 -0.16281612 -0.14912757 0.11452635
0.74010807 -0.23738496 4.1538329 -0.96933043 0.18899713 -0.1570946 0.081456125
0.57059938 0.30086204 4.1787071 -0.72506577 -0.51178795 -0.46081766 0.12117321
0.74227977 -0.20005505 4.1634555 0.91828871 -0.21055153 -0.33528194 0.03076886
0.73859715 -0.23554383 4.1671305 -0.94881332 0.27966315 -0.14677089 0.10135181
0.74151921 -0.22221936 4.1678095 0.97595841 -0.035618342 -0.21502686 0.053212792
0.74426115 -0.18979381 4.1693411 -0.86369431 0.48561001 -0.13496363 0.093959481
0.76187897 -0.13673453 4.1672277 0.79613453 -0.50861013 -0.32784984 0.11607537
0.74154592 -0.21376254 4.1718006 0.96888912 0.091113001 -0.23011377 0.16067427
0.74327606 -0.20601352 4.1737423 0.90318555 -0.34932643 -0.24945316 0.057440475
0.74154872 -0.21065654 4.1775117 0.63351768 -0.74416536 -0.21183315 0.11263186
0.73835218 -0.2302177 4.1793199 -0.81475526 0.44128674 -0.3760848 0.070684776
0.74566215 -0.19386992 4.1801987 -0.98472458 0.073316999 0.15793052 0.11852897
0.74568224 -0.18930556 4.1825252 0.9799276 -0.060672931 -0.18989645 0.10858659
0.76332217 -0.14227976 4.1801739 -0.95284659 0.30319861 0.012406148 0.01845305
0.74805772 -0.18006079 4.1836629 0.9529646 -0.21605498 -0.21255273 0.077954657
0.7517916 -0.17122428 4.1859441 -0.98939532 0.14408603 0.018332239 0.06897147
0.74885631 -0.18104367 4.1885085 -0.89743853 0.42797881 0.10695016 0.065747567
0.76377153 -0.13466735 4.1875253 -0.99862075 -0.011146392 0.051305003 0.016384764
0.75282925 -0.086659953 4.191361 0.074319482 0.68417102 -0.72552514 0.091053985
0.76007885 -0.13444136 4.2222171 -0.4048298 0.78740245 -0.46487635 0.053831927
0.7379778 -0.046822634 4.2503996 0.94301665 -0.1308943 -0.3059186 0.13494022
0.73564887 -0.049788155 4.2654624 0.36519253 -0.91901165 -0.14849934 0.087838843
0.74813467 0.078623846 4.2885604 0.0066511082 -0.99557757 -0.093707658 0.045734242
0.76285881 0.080744877 4.3056569 0.62747437 0.62128222 -0.46934462 0.061003778
0.7138139 -0.021475863 4.3163667 0.9727391 0.093306392 -0.2123028 0.12094078
0.7702443 0.058886066 4.3121462 -0.47125816 0.73069787 -0.49395981 0.21799091
0.69256198 -0.22998367 4.0274992 0.82567281 0.022736486 -0.56369096 0.11290502
0.69662333 -0.22208749 4.0392957 0.80416441 0.35933238 -0.47349742 0.11523919
0.730021 -0.2591342 4.0843396 -0.49528027 0.74827778 -0.44133645 0.21379994
0.73122239 -0.25046539 4.0916286 -0.83725554 -0.53459889 0.11492287 0.060607497
0.73325038 -0.25309092 4.097219 -0.91561115 -0.40139654 0.02317293 0.12521744
0.54135716 0.2631084 4.1178222 -0.26033622 0.044802401 -0.96447796 0.17855646
0.57005227 0.25569764 4.1338806 0.50522912 -0.42929074 -0.74863404 0.010511459
0.58813882 0.24617982 4.1523309 0.49297774 -0.63007551 -0.59998149 0.013177452
0.56622589 0.21430811 4.172122 0.51525962 -0.51643091 -0.68396389 0.049484357
0.62216085 0.26309788 4.1768918 0.80418265 -0.43954298 -0.40011531 0.041013274
0.60250187 0.23280708 4.182519 0.69483763 -0.57087958 -0.43737528 0.011794413
0.76927745 -0.13486315 4.1689615 0.20698436 -0.86746258 -0.45240018 0.11716554
0.75319701 -0.19104546 4.1837182 -0.89597791 0.32283026 -0.30496603 0.14575046
0.66077435 0.27367443 4.2110858 0.31957355 0.92494684 -0.2057815 0.11633328
0.77749693 0.29570079 4.2735438 -0.095076025 -0.98962563 -0.10771087 0.19550604
0.78408766 0.29759997 4.2798433 -0.51933765 0.84393942 -0.13436741 0.144574
0.7894876 0.30655688 4.2849822 -0.40388408 0.78047425 -0.4772186 0.14852211
0.79238969 0.3080011 4.2886391 0.27587461 -0.87565553 -0.39638442 0.17899445
0.79080021 0.29337272 4.2976518 0.48064932 -0.42169222 -0.7688641 0.1972632
0.79844242 0.30123627 4.303031 0.65971261 0.71619451 -0.22769423 0.22370002
0.77923214 0.058737252 4.3102465 -0.34190306 -0.82909012 -0.44239324 0.17337784
0.80362272 0.30344656 4.3084497 0.58520055 -0.22160491 -0.78002024 0.17605878
0.81140184 0.3180227 4.3068047 -0.18067028 -0.13444062 -0.97431207 0.25250396
0.82349527 0.29976135 4.3471456 0.86194557 0.24979924 -0.44119173 0.19354224
0.87199402 0.31454453 4.3750086 -0.34300753 0.90838599 -0.23912485 0.09396179
0.64691764 -0.18495442 4.0128918 -0.68590653 -0.68031955 -0.25825858 0.11105321
0.69844562 -0.20757629 4.0668039 -0.096042141 -0.98397177 -0.15025146 0.053726144
0.74392861 -0.17584182 4.1779256 -0.92973208 0.34498248 0.12878397 0.067183807
0.76810652 0.066812381 4.3054247 0.80704498 0.17085554 -0.5652315 0.23778281
0.79074663 0.058975745 4.3276496 -0.29365605 0.088254452 -0.95182842 0.19850069
0.79222363 0.069013312 4.3284674 0.56074536 0.76073074 -0.32688427 0.16662844
0.79557288 0.050198741 4.335382 0.39052901 -0.90586948 -0.16397452 0.16476758
0.80410767 0.054303348 4.3438053 -0.026635865 -0.89729506 -0.4406268 0.11923499
0.80648011 0.050537772 4.3505077 -0.014812456 -0.93683404 -0.34946036 0.14219005
0.66772139 -0.23290317 4.0290761 -0.32615212 -0.035436809 -0.94465292 0.1185386
0.70537961 -0.25977111 4.0763054 0.12679711 -0.62037069 -0.77399147 0.17583425
0.71168929 -0.25584999 4.0993767 0.40447223 -0.82742816 -0.38956988 0.13110968
0.76942259 0.064741977 4.315114 -0.3690019 -0.21165034 -0.90500921 0.25061378
0.77767861 0.070397206 4.3223381 0.57157153 -0.22359867 -0.78949964 0.13682252
0.78296262 0.056045454 4.3264923 -0.49277318 0.46732235 -0.73401946 0.20721678
0.78733647 0.063804999 4.3298235 -0.3828963 0.55611229 -0.73765141 0.19562188
0.66485846 -0.18890037 3.9892077 -0.93799055 -0.32655367 0.11634687 0.15525162
0.66345352 -0.18162638 3.9934216 -0.93799049 -0.32655358 0.11634681 0.15525162
0.66884673 -0.20164295 3.9953368 0.95263034 -0.038216114 -0.30172005 0.072686523
0.68213433 -0.22232711 4.0068541 0.70218056 0.52670735 -0.47908431 0.10944835
0.71423072 -0.25346756 4.0488753 0.81663263 -0.2915448 -0.49810922 0.056557376
0.40125307 0.28543466 4.0259194 -0.13666627 -0.39812115 -0.90709531 0.13391733
0.427751 0.30122882 4.0312772 0.70697486 0.021393299 -0.70691502 0.1957047
0.42114618 0.28646606 4.0327926 -0.14469618 -0.39124942 -0.90883821 0.1268122
0.44181827 0.2737909 4.0432758 -0.16800433 0.6405161 -0.74934214 0.063535698
0.44626108 0.3067627 4.0452204 -0.088152483 -0.73245317 -0.67508638 0.14949141
0.44491023 0.29799864 4.0457811 0.15730211 -0.5128088 -0.84396869 0.15773109
0.44741488 0.27260914 4.0474305 -0.42731458 0.46556783 -0.77501541 0.092768066
0.45202816 0.2219357 4.0647278 0.68764126 -0.29751748 -0.66229361 0.030754805
0.44547293 0.21570417 4.0669122 0.72695345 -0.19880792 -0.65727782 0.036305647
0.47731096 0.27945659 4.0694432 0.6851145 0.14379823 -0.71410096 0.055134464
0.4471375 0.22205228 4.0690784 0.72695345 -0.19880778 -0.65727788 0.036305644
0.44186878 0.21421586 4.0700269 0.72695357 -0.19880767 -0.65727776 0.036305621
0.48458418 0.27938733 4.0772505 0.71575749 0.23847309 -0.6563701 0.038855422
0.71969718 -0.20968807 4.0954409 0.97934008 0.045439504 -0.19704923 0.024122875
0.48894951 0.30242258 4.0978847 0.58983433 0.36423889 -0.72071177 0.033401307
0.45881617 0.21991475 4.1017971 0.32981974 -0.90046006 -0.28353238 0.072445653
0.49804759 0.30553904 4.1118355 0.47831565 0.84560466 -0.23699552 0.09084966
0.71995819 -0.27787986 4.1243138 -0.83112752 0.5365876 -0.14594777 0.012283434
0.73068786 -0.26494202 4.1301899 -0.68046224 0.71513033 0.15987408 0.048172966
0.7170732 -0.27285847 4.1396289 -0.15737624 0.80705553 -0.56911689 0.10486996
0.57561719 0.24665745 4.1403537 0.51122981 -0.54201531 -0.6669808 0.013767292
0.53496593 0.21881469 4.1395454 0.45501304 -0.78847563 -0.41384697 0.012867121
0.55458868 0.22471873 4.141099 0.49767247 -0.68794239 -0.5282588 0.01869078
0.54258716 0.21738644 4.1476464 0.35578203 -0.83010691 -0.42935035 0.017581012
0.72952873 -0.2593224 4.1561294 -0.58492643 0.5449959 -0.60070002 0.12784845
0.74457532 -0.14959837 4.1580691 -0.011602879 -0.78418833 -0.62041432 0.086907007
0.73772758 -0.22638361 4.1621628 -0.96077108 0.23189689 -0.15212722 0.1708542
0.55122995 0.2185145 4.1563697 0.41376859 -0.80513084 -0.4249233 0.02430756
0.58972037 0.24133274 4.1599207 0.4920429 -0.71564966 -0.49572119 0.005443864
0.56606674 0.22719331 4.1606178 0.41225517 -0.76634359 -0.49270993 0.031799156
0.55779839 0.21566127 4.1644044 0.33671471 -0.62221062 -0.70673692 0.024755856
0.75409919 -0.14983884 4.1705475 -0.59415305 0.80239403 -0.056089528 0.1391793
0.60337627 0.27440146 4.1680207 0.3303082 0.36675912 -0.86970353 0.045137927
0.56091321 0.21099661 4.1674895 0.35841048 -0.56616843 -0.7422905 0.029539043
0.56505555 0.21431029 4.1722722 0.51525956 -0.51643097 -0.68396389 0.049484357
0.56380147 0.20662181 4.1743646 0.52874482 -0.50187588 -0.68450677 0.040215801
0.61633396 0.26356408 4.1776667 0.78296781 -0.4511168 -0.42831647 0.048262402
0.56274116 0.20159577 4.1779675 0.52874488 -0.50187588 -0.68450671 0.040215906
0.59858137 0.23314258 4.1830411 0.55278379 -0.70767641 -0.44002745 0.010893916
0.60029078 0.23439014 4.1888986 0.55278379 -0.70767641 -0.44002733 0.010893916
0.74437308 -0.079509154 4.1923795 0.50408131 0.63237345 -0.58822268 0.031148504
0.73325634 -0.072101712 4.1931028 0.45825416 0.63762009 -0.6192283 0.026765713
0.73565632 -0.064899296 4.204093 -0.31546614 0.86080605 -0.39936695 0.087562755
0.61298794 0.11585727 4.2050681 0.37702754 0.097130977 -0.92109489 0.088195391
0.73281586 -0.20550181 4.2104468 -0.50507814 0.65561187 -0.56131017 0.10364909
0.75094736 -0.14382295 4.2115736 -0.23495327 0.91221565 -0.33564806 0.12513129
0.74830401 -0.15132122 4.2121019 -0.025032351 -0.15415716 -0.98772919 0.15798238
0.65072262 0.27476221 4.212605 -0.36445731 -0.86088318 -0.35503662 0.10087465
0.74440908 -0.15724181 4.2153635 -0.19368009 -0.19231761 -0.96203017 0.10820534
0.73165357 -0.19918154 4.2154064 -0.51776421 0.35433969 -0.77869362 0.16487344
0.75313991 -0.13613354 4.2162766 -0.33428356 0.7908079 -0.5127157 0.075011693
0.72836649 -0.20666583 4.2166805 -0.32356295 0.86508173 -0.38332817 0.17277776
0.75335932 -0.1312333 4.2180138 -0.24528277 0.85946852 -0.44849768 0.065292008
0.72323561 -0.20695834 4.2225475 -0.34622362 0.2800574 -0.89537537 0.16396645
0.73923218 -0.065941565 4.2228074 -0.61641699 0.76287401 -0.19507293 0.12956285
0.75221384 -0.13508499 4.2235098 -0.28692025 0.89679652 -0.33679786 0.047454536
0.63605696 0.14048186 4.2242112 0.086960316 0.27115983 -0.95859808 0.14548253
0.63580549 0.11561314 4.2252951 -0.43237665 -0.012332731 -0.90160871 0.17372759
0.72753382 -0.19322781 4.2265754 -0.64752531 0.17394142 -0.74192679 0.174292
0.7341727 -0.17401113 4.2266684 -0.77488416 -0.60813046 -0.17242922 0.21444468
0.72728604 -0.17789173 4.2301078 -0.41931182 0.67102361 -0.61147755 0.209775
0.63614261 0.09122172 4.2306328 -0.12417848 0.17754816 -0.97624606 0.16017401
0.72598255 -0.17348933 4.2330022 0.91529566 0.36208171 -0.17643879 0.19263813
0.72325498 -0.18400638 4.2343197 -0.7189613 0.34854794 -0.60133934 0.11764707
0.74988866 -0.1299293 4.2346277 -0.16040964 0.85575861 -0.49187988 0.036109146
0.63685805 0.14732781 4.2350869 -0.56126219 0.34604633 -0.75182223 0.1274761
0.75036347 -0.12542121 4.2357078 -0.16040963 0.85575861 -0.49187985 0.036109183
0.72329396 -0.17482544 4.237967 -0.51296544 0.83122569 -0.21431357 0.20310488
0.72797507 -0.056618437 4.2379198 -0.016256327 0.40052271 -0.91614258 0.10715657
0.7232433 -0.17059371 4.2415495 0.012690106 -0.97888851 -0.20400032 0.13178945
0.73017544 -0.05123223 4.2486391 0.94300079 0.14654267 -0.2987887 0.20645024
0.71641833 -0.17593303 4.2493377 -0.22032811 0.92948014 -0.29584157 0.10425557
0.73821771 -0.12944832 4.2584801 0.0061683329 0.96361005 -0.26724058 0.045548107
0.73486257 0.30007002 4.2587113 0.38956401 0.83764917 -0.38286254 0.22155839
0.73459983 -0.13801537 4.262022 0.11068976 0.82622969 -0.55235165 0.062063951
0.72779793 -0.053766195 4.2627959 -0.49223232 0.85502756 -0.16320275 0.083129466
0.73188406 -0.12566817 4.2704992 -0.069966115 0.96040571 -0.2696768 0.05519608
0.75303113 0.29739246 4.272419 0.52227366 0.32634282 -0.78786463 0.13471207
0.72925109 -0.12483537 4.2774577 -0.099906906 0.94948208 -0.29749331 0.044666134
0.71825027 0.066505335 4.2780461 -0.69541311 0.71774071 -0.035338022 0.17766033
0.73166078 0.28239834 4.2804508 -0.87324941 -0.36057797 -0.32774842 0.089053519
0.7229808 0.063293457 4.2875996 -0.50238991 0.76942527 -0.39444789 0.10782665
0.699175 -0.011828983 4.2997775 0.49217018 0.8196789 -0.29307836 0.13673568
0.70641017 -0.034251124 4.3087525 0.69683325 -0.25496224 -0.6703862 0.19882774
0.74939793 0.08507406 4.3077898 -0.11905725 0.82779515 -0.54825228 0.075415231
0.7179808 -0.095844261 4.3157964 -0.42886266 0.82690978 -0.36372662 0.07154078
0.69145465 -0.006148797 4.3178024 0.02475003 -0.9508431 -0.30868247 0.12006131
0.73008293 0.086278163 4.3166218 0.44392702 -0.42886662 -0.78676695 0.14728507
0.74686134 0.089893475 4.3188944 -0.083327539 0.93917251 -0.33318394 0.17365842
0.74022925 0.094494924 4.3217902 0.29023072 -0.93031508 -0.22423227 0.20928882
0.71276093 -0.090437643 4.3247495 -0.36659771 0.78960943 -0.49206004 0.040333536
0.70491093 -0.097727582 4.3375087 -0.35132259 0.82133365 -0.44942576 0.042055812
0.70304394 -0.086871304 4.3434653 -0.16889872 0.8231166 -0.54217374 0.059961148
0.70059144 -0.077211395 4.3540931 -0.055111933 0.82353896 -0.56457609 0.069436878
0.68234271 -0.0301033 4.3577075 -0.15450187 0.26229429 -0.95253915 0.036381237
0.68605232 -0.029684721 4.3611374 -0.15450186 0.26229432 -0.95253921 0.036381345
0.67809325 -0.017384309 4.3639479 -0.15186836 0.28562802 -0.94623077 0.035478435
0.68240792 -0.0076629324 4.3640065 -0.13830723 0.26029029 -0.95557314 0.018945456
0.67915016 0.0012935841 4.3658657 -0.16976614 0.22606401 -0.95920515 0.015843539
0.6833626 -0.027450718 4.3657279 -0.15450187 0.26229432 -0.95253915 0.036381241
0.68151414 -0.0086592706 4.3682737 -0.080090165 0.28293085 -0.95579058 0.020906039
0.67851561 -0.0017130225 4.3692141 -0.11451727 0.24690697 -0.96224874 0.017414315
0.67616773 0.010170333 4.3726983 -0.11132275 0.27504143 -0.95496565 0.02651077
0.68136925 0.0038550678 4.3724265 -0.12860359 0.2791408 -0.95159948 0.018491283
0.77668858 0.29495919 4.3770967 -0.31585065 0.9286629 -0.19448282 0.081662625
0.78229457 0.046097092 4.385366 -0.41103607 0.90265638 -0.12751745 0.10537006
0.78224468 0.053896099 4.3949733 -0.18826742 0.79222727 -0.58045793 0.060459796
0.77901566 0.063180998 4.4098792 -0.18152913 0.8666451 -0.46472949 0.04750951
0.63079572 0.00083667418 4.4541993 0.10880771 -0.98761261 -0.11305773 0.15643018
0.62683105 -0.0057726433 4.4567914 0.19762716 -0.97811049 -0.065141805 0.17464653
0.62855929 -0.0010209233 4.4598799 -0.061381347 -0.99257177 -0.10504147 0.14906952
0.62852055 -0.0069051664 4.4623823 0.010038505 0.97848809 -0.20605923 0.085223436
0.62769353 -0.012030513 4.4630723 -0.098758325 0.97234064 -0.21166159 0.069470562
0.62501031 -0.0061631151 4.4742618 -0.087129772 0.97117841 -0.22185776 0.079303555
0.62197578 0.0004757398 4.4796743 -0.064565808 0.9352423 -0.3480705 0.054194055
0.62059206 0.0010678199 4.4918733 -0.056575786 0.895904 -0.44063032 0.064034328
0.615722 0.012462551 4.5128784 0.22087446 0.90872127 -0.35417533 0.06159595
0.61266005 0.01608501 4.5183082 -0.3684966 0.69043601 -0.62250167 0.15780869
0.58699995 0.045882858 4.5546036 -0.43020391 0.80511743 -0.40830195 0.17829438
0.5912627 0.05049989 4.5662527 -0.18058629 0.91970086 -0.34862426 0.11785146
0.60319233 0.063969351 4.6098089 0.11574387 0.93194824 -0.3436217 0.14681387
0.60475159 0.068844959 4.6246328 0.20881969 0.67638487 -0.7063269 0.080520235
0.57732224 0.089688063 4.6372881 -0.12706859 0.85053045 -0.51034456 0.13923082
0.60300738 0.073986977 4.6355214 0.35316315 0.70982468 -0.60944617 0.079488061
0.61441302 0.065429807 4.6345549 0.32888976 0.76255828 -0.55707848 0.060916219
0.590042 0.082339421 4.6399355 -0.13087964 0.73493755 -0.66538513 0.12073787
0.58003104 0.09322042 4.6454229 -0.19971137 0.90874523 -0.36646622 0.10307748
0.58636868 0.088572256 4.6461482 0.14897539 0.96986675 -0.19278191 0.12999108
0.57504463 0.095591404 4.648571 -0.15889987 0.95560759 -0.24812284 0.10294649
0.60122144 0.081327692 4.6451535 0.23240034 0.85774934 -0.45853692 0.066270187
0.5913071 0.088082217 4.6527686 0.13751863 0.97847325 -0.15387899 0.11473329
0.58941078 0.090371549 4.6663795 0.029710999 0.99277115 -0.11628705 0.052386772
0.60099584 0.092446096 4.6735992 0.16796538 0.96338195 -0.20900443 0.030708071
0.61687905 0.086301044 4.6731334 0.19611256 0.95758414 -0.21112208 0.023633029
0.60988706 0.08982183 4.6767907 0.11589801 0.94093823 -0.31812426 0.027053334
0.60439575 0.092673771 4.678978 0.15773527 0.95507103 -0.25091606 0.030518264
0.59884584 0.095228486 4.684494 0.17108069 0.95525968 -0.24126831 0.031757638
0.59602648 0.099705845 4.6867242 0.10077205 0.95533705 -0.27780598 0.030666528
0.59287143 0.10522202 4.6910901 0.069880038 0.96202993 -0.26384676 0.022813948
0.59621608 0.098538145 4.6946449 0.018021304 0.91788626 -0.39643422 0.0173807
0.66358382 -0.1919286 3.9878409 0.88778573 0.25072798 -0.3859688 0.098968834
0.66842347 -0.211271 3.9983764 0.86831498 0.28553918 -0.40558174 0.10184766
0.67566723 -0.2068464 4.009254 0.78384882 0.54583597 -0.29604754 0.10302517
0.68998629 -0.23847423 4.0183597 0.74095392 0.24222583 -0.62634981 0.1039442
0.70344961 -0.24896835 4.0347438 0.54576945 -0.14748383 -0.82485408 0.13734455
0.6909833 -0.20724167 4.0341344 0.81058228 0.06243078 -0.58228749 0.11365426
0.70367354 -0.25540689 4.0408349 0.6307835 -0.34842816 -0.69333249 0.046441786
0.71607852 -0.25192478 4.0516953 0.84078383 -0.11695253 -0.5285874 0.076090418
0.71023673 -0.26070896 4.0527973 0.73305386 -0.28263739 -0.61866647 0.12975466
0.71762794 -0.23765956 4.0621152 0.93415821 0.26198617 -0.24230489 0.18223859
0.73039538 -0.25129357 4.098279 -0.88596493 -0.46208328 0.039310411 0.1291268
0.72162157 -0.2778751 4.1176271 -0.82245851 0.50947893 -0.25296885 0.091737233
0.55345404 0.22482565 4.1410546 0.44121358 -0.78340346 -0.43773225 0.016294235
0.54121071 0.21748729 4.1475978 0.35578212 -0.83010679 -0.42935032 0.017581044
0.73906231 -0.22740635 4.1595864 -0.14227447 0.88307768 -0.44713733 0.092337608
0.7380932 -0.23918679 4.1601396 -0.94698364 0.31420842 -0.067045279 0.10018484
0.73813683 -0.23276795 4.1633096 -0.96067238 -0.27438375 -0.042686764 0.15364672
0.75733721 -0.1450271 4.1674466 0.82919657 -0.50573939 -0.23803489 0.023779241
0.55751085 0.21567608 4.1643963 0.33671483 -0.62221068 -0.70673686 0.024755919
0.74613309 -0.16454256 4.1913204 -0.93717957 0.0044431225 -0.34881908 0.070248641
0.76174796 -0.13341561 4.1943011 -0.10789268 -0.99214637 -0.063283443 0.14616747
0.74538332 -0.16683108 4.1965742 -0.68690628 -0.35195264 -0.63583732 0.10190285
0.74360138 -0.17500791 4.2002168 -0.7404784 0.22197628 -0.63436449 0.099653095
0.73680627 -0.20491344 4.2045245 -0.74646688 0.44394815 -0.49567854 0.049405288
0.73786777 -0.20017569 4.2058644 -0.85725516 0.26379901 -0.44218048 0.036184542
0.73458904 -0.20348862 4.2107344 -0.64688915 0.44792485 -0.6171692 0.09000621
0.73489171 -0.19346732 4.2139759 -0.74288988 0.38147569 -0.55008262 0.076708652
0.73760819 -0.18776938 4.2144933 -0.44591776 0.36469394 -0.81740785 0.17756014
0.75553465 -0.13592936 4.2162886 -0.33428347 0.79080784 -0.5127157 0.075011656
0.75601351 -0.13103354 4.2180243 -0.24528277 0.85946852 -0.44849768 0.065291986
0.73314637 -0.20091692 4.2189698 -0.67146617 0.43980202 -0.59641212 0.096054509
0.74133748 -0.065813892 4.2228107 -0.99443585 0.094653577 -0.046238907 0.046502911
0.63789153 0.14039323 4.2242126 0.13799618 0.1641852 -0.97672933 0.10347769
0.74001896 -0.056696184 4.2266092 -0.99554998 -0.026735369 -0.090363666 0.066263102
0.72432208 -0.19227391 4.2307191 -0.56792063 0.35053205 -0.74471033 0.18626055
0.72824824 -0.17328586 4.2329936 -0.69472808 -0.70129007 -0.15982832 0.17260672
0.7526198 -0.12539862 4.2356954 -0.1896434 0.86979753 -0.45550805 0.044429135
0.72574878 -0.17034371 4.2415299 -0.59549189 -0.63351268 -0.49401534 0.19160621
0.7333656 -0.051119976 4.2486033 -0.8335973 -0.34704193 -0.42974111 0.11323016
0.73278069 -0.053451337 4.2560606 0.53607309 -0.82877165 -0.16050923 0.10665783
0.73211271 -0.051118772 4.2626443 -0.53525954 0.8390227 0.097663172 0.086676918
0.7368778 -0.13584736 4.2642441 0.086401664 0.82062459 -0.56489819 0.056857601
0.75921756 0.063234195 4.3101869 -0.40829998 -0.89668918 -0.17099595 0.1299212
0.6997143 -0.0058394978 4.3174334 0.48547682 0.84661645 -0.21806616 0.12762664
0.76310307 0.061535504 4.3166804 -0.29541785 -0.8835507 -0.36340955 0.10237686
0.70832926 -0.090972282 4.3390403 -0.34109461 0.80866241 -0.47929078 0.047436614
0.7071771 -0.086632647 4.3432279 -0.34109461 0.80866235 -0.47929078 0.047436681
0.7861805 0.060833368 4.3401108 -0.17857397 -0.59410805 -0.78431302 0.13521911
0.68650156 -0.030151555 4.3574424 -0.15450181 0.26229432 -0.95253915 0.036381241
0.68411928 -0.027252853 4.3656764 -0.15450187 0.26229432 -0.95253915 0.036381241
0.68278491 -0.0016577332 4.3689184 -0.1697662 0.22606389 -0.95920515 0.015843505
0.68042201 0.010190641 4.3723969 -0.11543353 0.24746369 -0.9619962 0.026187813
0.78782833 0.046047729 4.3849173 -0.47869661 0.87660867 -0.049058866 0.13281466
0.78808558 0.053805355 4.3944712 -0.18826741 0.79222727 -0.58045793 0.060459837
0.78458548 0.062995337 4.4093595 -0.27433443 0.86552483 -0.41905549 0.058038399
0.62403882 0.0066190031 4.4985056 0.1496006 0.91939133 -0.36378455 0.055533908
