# .PCD v0.7 - Point Cloud Data file format
VERSION 0.7
FIELDS x y z normal_x normal_y normal_z curvature
SIZE 4 4 4 4 4 4 4
TYPE F F F F F F F
COUNT 1 1 1 1 1 1 1
WIDTH 594
HEIGHT 1
VIEWPOINT 0 0 0 1 0 0 0
POINTS 594
DATA ascii
-0.04459117 -0.20511162 3.5325036 0.18976456 0.10480236 -0.97622019 0.18400176
-0.30466685 0.3372516 3.5923662 -0.035152476 0.82987809 -0.55683619 0.021064958
-0.21217301 0.28079236 3.6628332 -0.35087088 -0.92424953 -0.15050709 0.14179982
-0.23572984 0.34251729 3.7002192 -0.30904317 -0.92886567 -0.20420761 0.0796756
-0.20643662 0.33320495 3.737432 0.54625005 0.65039945 -0.52781755 0.024753608
-0.22887453 0.032812998 3.8125095 0.003349144 -0.74184525 -0.67056286 0.04531721
0.037328973 0.33528274 4.0372825 0.11752634 -0.96609014 -0.22990763 0.038509842
-0.028160658 0.055735905 3.9438295 0.87441689 0.2500903 -0.41575223 0.10714295
-0.072042279 -0.18742363 3.5959413 -0.10796694 -0.98031044 -0.165332 0.10181047
-0.3436735 0.23977004 3.5388222 0.44733682 0.3380326 -0.82802397 0.25273582
-0.01088603 -0.23780011 3.6426454 -0.44510654 -0.6374715 -0.62889606 0.09265881
-0.029850362 -0.30970266 3.6505058 0.23777086 -0.8462975 -0.47670284 0.093452789
0.0013931504 -0.29940134 3.6608691 0.97680676 -0.11657586 -0.17960668 0.12871136
-0.23734169 0.32596284 3.6248763 0.83075655 0.41254961 -0.37369287 0.13276961
-0.21832642 0.26079455 3.6540954 0.60741776 -0.32934818 -0.72289234 0.13902006
-0.025917217 -0.30285829 3.7108426 -0.62251425 0.69028795 -0.36875272 0.06712386
-0.24164392 0.21456431 3.6821334 0.084891558 -0.75154835 -0.65419304 0.1205126
-0.030736357 -0.1950065 3.7213562 0.97223157 -0.072318703 -0.22256625 0.1300898
-0.027495693 -0.19427335 3.7330258 0.95330632 -0.1731496 -0.24743971 0.14482112
-0.013833858 -0.25450069 3.7398815 0.99443179 0.10332604 -0.020711536 0.080692671
0.0045553441 -0.16338898 3.7572165 -0.95349514 0.30140811 -0.00028605902 0.11434877
-0.23948403 0.18296677 3.7276051 0.59541321 -0.14262021 -0.79065961 0.1654689
-0.00045885207 -0.17046885 3.7648189 -0.83496106 0.52822095 -0.15434626 0.084228642
0.0005525602 -0.16493526 3.766597 -0.94107646 0.33804005 0.010198581 0.14484198
-0.018049313 -0.10438306 3.7720826 -0.10383261 0.67374426 -0.73163337 0.045156386
-0.028814387 -0.2495506 3.7729309 -0.89980054 0.39524853 -0.1847637 0.20265538
-0.19652991 0.37989485 3.7796111 0.58735114 0.47036579 -0.65861571 0.007997728
-0.037493315 -0.23020457 3.792064 -0.44611451 0.65571362 -0.60911548 0.17693041
-0.044415828 -0.23382536 3.7965662 -0.33486331 0.81935465 -0.46532193 0.16555266
-0.015332152 -0.15516599 3.807415 0.14624396 0.87179542 -0.46753126 0.061250243
-0.015191402 -0.14979716 3.8095322 0.14093496 0.87937385 -0.45479548 0.060948148
-0.049667213 -0.21913382 3.8068814 -0.37202477 0.48603451 -0.79080206 0.097838297
-0.22320977 0.2164821 3.7912192 0.92693204 0.30964372 -0.21193795 0.037380461
-0.038753565 -0.19733123 3.8105152 -0.54983217 0.83526546 -0.0040236926 0.17658596
-0.046295173 -0.20037626 3.8105373 -0.25004798 0.77656662 -0.57829088 0.24023253
-0.052765246 -0.19786088 3.8137784 -0.14412338 0.93585938 -0.32155201 0.15452629
-0.18213741 0.16949868 3.8112283 -0.68529439 -0.72813815 -0.013657573 0.017682144
-0.058645446 -0.19499242 3.8218429 -0.19123517 0.98121387 0.025466615 0.065466657
-0.071872063 -0.20311783 3.8286994 0.19014166 0.89859217 -0.39544687 0.10688245
-0.084488831 0.07559076 3.8409309 0.72073758 0.41434839 -0.55574518 0.21212377
-0.062989645 0.29237002 3.8629019 -0.51122642 0.84476548 -0.15817346 0.063404039
-0.055708591 -0.15385766 3.8536062 -0.18972619 0.84775043 -0.49530113 0.045871288
-0.060372289 0.30067143 3.8792968 -0.5748648 0.55507672 -0.6011824 0.10767643
-0.078249328 -0.14620703 3.8740633 -0.03033869 0.99890661 -0.035565272 0.20071387
-0.084985681 -0.15901309 3.8738413 0.64781612 -0.60388958 -0.46438301 0.16071737
-0.085566148 -0.14853586 3.8791573 -0.20524685 0.96714282 -0.15002775 0.19451717
-0.032711741 0.3171989 3.8965199 0.87694681 -0.39498168 -0.2737768 0.079267941
-0.038363967 0.30584982 3.9019313 0.93362772 -0.34013677 -0.1124552 0.13394877
-0.11254561 -0.15765987 3.8858397 -0.23594294 0.59831226 -0.76573718 0.065113746
-0.026352961 0.33082899 3.9128411 -0.19597335 -0.93453568 -0.29704803 0.10311399
-0.11299168 -0.016249575 3.8962157 -0.54859197 -0.73824447 -0.39248177 0.16816807
-0.08981619 -0.11208357 3.8984962 0.26080865 0.84811926 -0.46116424 0.075819276
-0.1126092 -0.12854064 3.9064376 0.0091846017 0.50657904 -0.86214471 0.18680212
-0.024877526 0.32274911 3.9271376 0.90734231 -0.24679422 -0.34032711 0.11497092
-0.059468366 0.089468509 3.9185877 0.65636307 0.75332379 -0.041118421 0.059196737
-0.022645444 0.3262088 3.930541 0.73325735 -0.56145251 -0.38354239 0.074134335
-0.11824767 -0.10667524 3.9237335 -0.88690346 -0.38843149 -0.25004625 0.12500112
-0.15012573 -0.041746572 3.9343243 0.26808423 0.3538405 -0.89606237 0.16425042
-0.15903457 -0.042199254 3.9410324 0.56824136 0.32021227 -0.75800121 0.13557412
0.0025259184 0.34223059 3.9650359 -0.50273019 0.81179476 -0.29707181 0.089804009
-0.027648782 0.31575009 3.9631715 -0.6086902 0.78682441 -0.10199817 0.079544052
-0.041352555 0.064845309 3.9677176 -0.65202332 -0.73077011 -0.20209043 0.048437566
-0.069427036 0.025067545 3.9710133 -0.59315741 0.80001068 -0.090262249 0.05258707
-0.040520743 0.03952669 3.9988136 -0.81785494 0.39295369 -0.42035773 0.084486887
-0.046074055 0.064374626 4.0129819 -0.67241251 -0.4162375 -0.61205202 0.070599258
-0.23191221 -0.014203875 4.0071878 -0.34643945 0.54370999 -0.76443386 0.13793448
-0.2328435 -0.027475508 4.0075417 -0.39981818 0.45183262 -0.79749149 0.15366162
-0.22831577 -0.022259245 4.0082808 -0.42257416 0.41135305 -0.80760127 0.10459967
-0.062801294 0.0790461 4.0248184 -0.84813404 -0.40775996 -0.33823138 0.048629813
0.03299481 0.3360236 4.0377297 0.14152348 -0.96604854 -0.21615112 0.034500834
-0.2504431 -0.016859189 4.022758 -0.60667276 -0.50183225 -0.61653274 0.11617259
-0.055950686 0.068007484 4.0400014 -0.83092695 -0.48820171 -0.26686999 0.043079797
-0.26497763 -0.016087381 4.0415497 -0.88134497 -0.39320698 -0.26195309 0.081917644
-0.30148938 0.0034065733 4.046906 0.28495881 0.95484132 -0.084122322 0.075324573
-0.30357635 -0.0022945469 4.0601168 0.2639389 0.96046513 -0.088560522 0.08173316
-0.28492418 -0.0018250549 4.0739164 0.068708628 0.90282607 -0.424481 0.027202357
-0.29418713 0.0013735647 4.0924687 -0.035058007 0.93289381 -0.35844111 0.050888773
-0.30512279 0.017504366 4.1361885 0.46364316 0.8277247 -0.31608054 0.022872981
-0.31446701 0.028744131 4.1444468 0.36948615 0.86294973 -0.34467065 0.021384813
-0.34820509 0.048861656 4.1580777 0.5309698 0.80749846 -0.25693816 0.05933705
-0.37678063 0.074098811 4.1866045 0.37179559 0.87702626 -0.30429104 0.0091801519
-0.39328545 0.081141241 4.1894088 0.34247205 0.9148677 -0.21384588 0.021320362
-0.33788449 0.05548209 4.1918707 0.51657361 0.82605582 -0.22535186 0.030370452
-0.42498592 0.093476877 4.1955652 0.29278168 0.93541294 -0.19819552 0.015347062
-0.36289561 0.069345966 4.1958523 0.39679572 0.85370386 -0.33725786 0.013672821
-0.35525572 0.069924235 4.2035537 0.45724609 0.86106932 -0.22245373 0.026905064
-0.37465513 0.079654634 4.2047963 0.37500429 0.90391427 -0.20569564 0.029419811
-0.38184208 0.084624216 4.2084284 0.37678662 0.90452695 -0.19965662 0.029199457
-0.34730485 0.064325564 4.2081919 0.52624017 0.81733322 -0.23460096 0.028371692
-0.37032422 0.076929651 4.2094555 0.39091533 0.90119845 -0.18715386 0.030612752
-0.34959072 0.068808049 4.212945 0.46481588 0.85590243 -0.22666533 0.021919116
-0.36851454 0.078616746 4.2143493 0.36111334 0.90368134 -0.23012449 0.035207715
-0.38325065 0.0843786 4.2176671 0.38386756 0.90045524 -0.20451435 0.022664063
-0.37862098 0.082395837 4.2182436 0.34959131 0.92001128 -0.177102 0.032700095
-0.36385337 0.076025404 4.2180142 0.41248998 0.87856382 -0.24078548 0.025652766
-0.33312958 0.059729248 4.2170978 0.30000716 0.86109567 -0.41049948 0.054696057
-0.35383105 0.073326789 4.2272205 0.34510508 0.86830944 -0.35628796 0.06171798
-0.41469243 0.099619024 4.2478194 0.23780608 0.96177399 -0.13579053 0.02021027
-0.3416144 0.073643856 4.2480183 0.29162878 0.95179307 -0.095092356 0.090710573
-0.35162413 0.077278398 4.2497811 0.13310815 0.933671 -0.33247641 0.11793433
-0.3691287 0.086737677 4.2533016 0.14036836 0.92659158 -0.34889066 0.076968767
-0.36569828 0.082768358 4.2544909 0.10807876 0.9203133 -0.3759554 0.081476152
-0.37345099 0.085856788 4.264627 0.27471602 0.94763422 -0.1628511 0.08569248
-0.036350638 -0.31085137 3.6489215 0.094169468 -0.93159729 -0.35108215 0.21106023
-0.0072536054 -0.26694432 3.7290258 -0.78265578 0.049021516 -0.62052137 0.13857682
-0.086337134 -0.14377725 3.8833175 0.3925887 0.50897813 -0.76603878 0.20220582
-0.056262236 0.071554564 4.0109553 -0.78859729 -0.45107478 -0.41790646 0.076087885
-0.36165997 0.079860471 4.2390084 0.1275761 0.94217986 -0.3098731 0.083701298
-0.33867064 0.070406362 4.2407007 0.087429948 0.86850315 -0.48791224 0.065632686
-0.0030426597 0.3311429 3.9911528 -0.53925729 0.83915281 -0.070881285 0.055911787
-0.36476561 0.32200605 3.4935176 -0.087234214 -0.60640234 -0.79035842 0.14948852
-0.33948243 0.33407235 3.5179214 0.19215143 -0.24430498 -0.95046991 0.17036647
-0.36426944 0.23596723 3.5171316 0.60151333 -0.34373641 -0.72112894 0.088995524
-0.34345078 0.24692219 3.5417848 0.44733676 0.33803257 -0.82802403 0.25273582
-0.35030597 0.23806463 3.5403826 -0.5889141 -0.090219587 -0.80314422 0.07036002
-0.019769439 -0.30778137 3.6529682 0.5906322 -0.71982974 -0.36468998 0.034894478
-0.01134383 -0.31087664 3.6825769 -0.66623867 0.70082271 -0.2548992 0.026376929
-0.20906934 0.27006611 3.6708274 0.49045932 -0.54665291 -0.67869002 0.13559081
-0.018822877 -0.2892023 3.7327828 -0.56826401 0.52113777 -0.63678217 0.05466086
-0.0100402 -0.25386515 3.7406411 0.941697 0.33299038 -0.04820903 0.068587258
-0.2276226 0.24783038 3.688051 0.037643582 -0.59269339 -0.80454803 0.058588702
-0.022277702 -0.18577577 3.7566369 0.95162123 -0.14268555 -0.27213579 0.20439421
0.0034869947 -0.16113482 3.7724156 -0.98153937 0.027537463 -0.18926735 0.10579849
-0.03105301 -0.084612124 3.7778466 0.68587083 0.68913287 -0.23383148 0.055426147
0.00059899449 -0.15131199 3.7870817 0.98459613 -0.15109253 -0.087985933 0.16153041
-0.01577132 -0.19824247 3.7813764 -0.80419266 0.32657403 -0.49661207 0.064717151
-0.018281963 -0.17175658 3.8010383 -0.51644945 0.35396659 -0.77973557 0.12121315
-0.023890154 -0.17850906 3.8028328 -0.048597526 -0.16036615 -0.98586047 0.14380603
-0.050443225 -0.23427092 3.8011324 -0.15859158 0.84738541 -0.50674123 0.14798893
-0.1565657 0.11900976 3.7849338 0.15515485 -0.27596974 -0.94856089 0.08724688
-0.16294797 0.096717104 3.7865264 0.91540283 -0.40099508 0.035224423 0.28172252
-0.055006061 -0.20942138 3.8140576 -0.18513308 0.68609464 -0.70356238 0.15941039
-0.024594825 -0.14408924 3.8270619 -0.33958742 0.87755507 -0.33849299 0.039082166
-0.05325608 -0.069224767 3.8230405 -0.48481968 -0.60240471 -0.63408083 0.14600578
-0.068564393 -0.20133767 3.8274498 0.042774227 0.86776286 -0.49513438 0.08347895
-0.046827864 -0.14969845 3.8462353 -0.16456555 0.87510139 -0.45509976 0.048493929
-0.060169689 -0.098796993 3.8481686 -0.9414736 -0.14611819 -0.30377144 0.086796001
-0.080126323 -0.19376987 3.8421724 0.048821818 0.85947675 -0.50883806 0.061416168
-0.096921287 -0.17864527 3.8676372 -0.38157487 0.66525257 -0.64174736 0.068851165
-0.028082339 0.33105424 3.9126506 -0.19597347 -0.93453562 -0.29704815 0.10311408
-0.085633852 -0.13298616 3.8859892 0.73083866 0.58291769 -0.35508004 0.065436155
-0.10989408 -0.033616528 3.884527 -0.87441313 -0.39242518 -0.28531426 0.079971001
-0.089007482 -0.12322119 3.8907754 -0.33357027 0.62517643 -0.70560986 0.10836937
-0.10434863 -0.047427431 3.8898554 -0.91817009 -0.2700896 -0.2898539 0.077180527
-0.12607898 -0.01695928 3.8947284 -0.86744225 -0.43743291 -0.23705801 0.084243931
-0.081326447 0.085426852 3.909857 -0.0069418917 -0.043995898 -0.99900758 0.25468162
-0.13215993 -0.13013664 3.9043248 0.17245764 0.62915629 -0.75790548 0.070329048
-0.050925557 0.082320251 3.9338305 0.69465399 0.68214577 -0.22832641 0.080924019
-0.11505511 -0.11853557 3.9177175 -0.45585638 0.57472718 -0.67962015 0.11553606
-0.15026888 -0.0056091691 3.9296603 -0.91425747 -0.13801278 -0.38090122 0.12162342
-0.027211668 0.045457833 3.9689207 0.39357597 -0.91436851 -0.095017247 0.18293975
-0.158424 -0.03117287 3.9381409 0.59818697 0.26041126 -0.7578643 0.1035877
-0.04258946 0.064609304 3.9676106 -0.65202332 -0.73077017 -0.2020904 0.048437592
-0.1534311 -0.020323198 3.9400012 0.82485056 0.40118507 -0.39833653 0.15634213
-0.15249181 -0.04228707 3.9416084 0.45517969 0.39810556 -0.79644424 0.14509287
-0.033882588 0.31441653 3.9817607 0.42940047 -0.90270346 -0.027236206 0.080444023
-0.0053620674 0.33180183 3.9909968 -0.53997952 0.8382346 -0.076057449 0.060134374
-0.15793869 -0.0078566344 3.9488068 0.55926758 0.47344771 -0.68049037 0.033752415
-0.14795868 -0.079361632 3.955574 0.25174609 0.89770997 -0.36158106 0.16301401
-0.17100061 -0.072481267 3.9684446 -0.038725868 0.79598421 -0.60407728 0.036606792
-0.17604232 -0.056537364 3.9777551 -0.011797791 0.6928364 -0.72099829 0.034126498
-0.046576355 0.047729414 4.0088348 -0.76375604 0.17576863 -0.6211136 0.15276957
-0.061975252 0.059265766 4.0355792 -0.83092695 -0.48820129 -0.26687038 0.043079849
-0.24075322 -0.037956599 4.0046368 -0.29042423 0.57962567 -0.76137233 0.20721728
-0.072769515 0.062428597 4.0451159 0.39445087 0.90563738 -0.15565802 0.062627673
-0.24910355 -0.014756747 4.0173903 -0.40230775 -0.53700787 -0.74146545 0.10059237
-0.070879921 0.080074139 4.0588746 0.39445075 0.9056375 -0.15565789 0.062627509
-0.25473475 -0.023719901 4.0250731 -0.17903225 -0.83561021 -0.51932943 0.15884118
-0.3741003 0.02631465 4.0893564 0.91424406 0.15039505 -0.37621695 0.080502205
-0.33546454 0.033892762 4.135354 0.29761028 0.90266156 -0.31085432 0.029543478
-0.37086239 0.058206499 4.1444993 0.75045437 0.65713781 -0.070626184 0.077162199
-0.38540429 0.078361221 4.1972647 0.37500432 0.90391433 -0.20569557 0.029419806
-0.37027574 0.070059456 4.2040658 0.40048406 0.86735046 -0.29549256 0.014558121
-0.38121426 0.078250334 4.2324724 0.37183532 0.911461 -0.17600361 0.034046989
-0.42875239 0.096075706 4.2345924 0.26014051 0.95042807 -0.17033273 0.011448178
-0.38081506 0.088140659 4.2567081 0.25004303 0.93143344 -0.26440537 0.055369139
-0.38655049 0.094206467 4.2605424 0.26087794 0.94535834 -0.19555178 0.052158095
-0.055568825 -0.21882851 3.809449 -0.22690818 0.49551979 -0.83843482 0.08758229
-0.15570614 -0.042234171 3.9408703 0.056755662 0.25157624 -0.96617192 0.13339007
-0.044882573 -0.2029565 3.5435295 -0.15932222 -0.97075117 -0.1796069 0.15920697
-0.25761628 0.02749525 4.0109735 -0.4856191 0.49400896 -0.72119993 0.041258436
-0.53636605 0.25294313 3.6017408 0.34672925 0.82185543 -0.45203134 0.032660741
-0.15662472 0.014603193 3.8705733 -0.30269817 -0.88503391 -0.35367897 0.12401814
-0.33571821 0.19733714 3.6893015 -0.27778706 -0.92302728 -0.26618594 0.079305127
-0.31130448 -0.021615613 3.8342698 0.97424841 0.14524139 -0.17246702 0.084934674
-0.31762412 0.17010394 3.7173669 -0.071175605 -0.76646042 -0.63833565 0.06311053
-0.31430364 0.19526078 3.6970284 -0.1379486 -0.98739451 -0.077603072 0.062519163
-0.3115924 0.24390066 3.6226172 0.2909753 0.83334726 -0.46996361 0.065216206
-0.29631755 -0.010091447 3.8233807 -0.8374815 0.52457339 -0.15312608 0.114505
-0.286286 -0.083815329 3.7877231 0.35764745 0.80729043 -0.46943644 0.1185419
-0.28053775 -0.052010458 3.7745786 0.22099614 -0.96125335 -0.16478065 0.16938038
-0.27701944 -0.043285318 3.783709 0.87408787 -0.41716433 -0.24888594 0.071355715
-0.27455762 -0.032741807 3.7763557 0.70695955 -0.70302677 -0.077211179 0.093367241
-0.26677811 0.054337606 4.0290165 -0.43964851 0.54706329 -0.71234185 0.045217473
-0.25939846 0.16838492 3.7210302 -0.16658126 -0.47587392 -0.86359406 0.2530424
-0.24515857 0.044150777 4.0120239 -0.3064377 0.70420635 -0.64046025 0.05442737
-0.22287269 0.084414802 3.8227701 -0.8137067 0.38934705 -0.43161368 0.077103667
-0.21423091 0.088116847 3.8189375 -0.89682651 0.34933105 -0.27142245 0.075454414
-0.21275499 0.055559531 3.7973852 -0.83730757 0.33606881 -0.43124667 0.077901103
-0.22095494 0.27178997 3.6741543 0.21713886 -0.67528427 -0.70487005 0.061565761
-0.1973536 0.10379222 3.7610357 -0.98187238 0.071131408 -0.17569007 0.1724581
-0.19668049 0.11367019 3.7581449 0.82373381 -0.41698897 -0.38416505 0.067261353
-0.180199 -0.17016327 3.638356 -0.6085766 -0.29159659 -0.73797429 0.15541904
-0.17345996 -0.13047351 3.6459177 0.12131498 0.60610294 -0.78608012 0.02736217
-0.16281299 -0.22756344 3.6972837 0.73722625 0.66094232 -0.14018819 0.14868148
-0.1675956 0.14475425 3.7741573 -0.87538624 0.37501535 -0.30506128 0.089267291
-0.15015729 0.0089529632 3.8708684 -0.27867389 -0.95666951 -0.084405281 0.10243405
-0.14680171 -0.22415401 3.6586552 0.37761396 -0.79854625 -0.46875525 0.079700284
-0.14702563 -0.21136495 3.6530347 -0.71752113 -0.34240708 -0.60656476 0.12357011
-0.13413806 0.020261176 3.8607712 0.57022738 -0.22710368 -0.78947115 0.15557823
-0.14246389 -0.21242703 3.6473265 -0.6880455 -0.22207732 -0.69085097 0.072058603
-0.14242384 -0.20537618 3.645129 -0.50490659 -0.40868717 -0.76029217 0.14433926
-0.13722797 -0.20796783 3.6410317 -0.72756928 0.19347923 -0.6581859 0.16662225
-0.13412531 -0.22464798 3.6440797 -0.57139671 -0.15820611 -0.80528051 0.20068425
-0.13418765 -0.21300837 3.6383288 -0.84710938 -0.007341804 -0.5313679 0.16914496
-0.11838918 0.04307859 3.8414297 -0.17085943 -0.26286727 -0.94958299 0.19531935
-0.12997086 -0.15412654 3.6204576 -0.078621946 -0.021461388 -0.99667341 0.089997448
-0.12450508 -0.23345259 3.6366348 -0.91841888 -0.032130145 -0.39430243 0.10848165
-0.12185217 -0.26389128 3.6503096 -0.78776556 0.61201352 -0.069749266 0.26186964
-0.12466131 -0.20658429 3.6245306 -0.69010091 -0.4060373 -0.59907794 0.20238008
-0.1218529 -0.21124072 3.6244709 -0.79536057 -0.15850201 -0.58504599 0.19470118
-0.12378605 -0.15706305 3.6205282 -0.095532507 -0.22671954 -0.96926355 0.11069035
-0.11402645 -0.22178766 3.6151023 0.1883844 0.80132383 -0.56779528 0.11903597
-0.11148103 -0.22598046 3.610481 0.63899499 0.29788864 -0.7091881 0.10805868
-0.10254054 -0.27489322 3.6233153 -0.035789225 -0.43559456 -0.89943129 0.11138348
-0.10382935 -0.25535008 3.6045783 0.29866713 -0.94901842 -0.10080674 0.18510726
-0.074570164 -0.24826871 3.5620208 -0.35776186 0.048350085 -0.93256032 0.13953373
-0.072005272 -0.23357907 3.5611012 -0.92174196 0.26641947 -0.28180218 0.17202051
-0.069796503 -0.25430223 3.556015 -0.47687823 0.43454689 -0.76403934 0.26728866
-0.069725856 -0.22609861 3.5548179 -0.044992719 -0.94166917 -0.33351889 0.09205348
-0.06016545 -0.26684743 3.5567088 0.047963396 -0.27155375 -0.96122736 0.053685449
-0.60430187 0.28908888 3.6607199 0.41677529 0.89466482 -0.16085139 0.071832187
-0.55115104 0.31523353 3.6711988 -0.19179043 0.49243891 -0.84895253 0.043723177
-0.53847831 0.2719802 3.6421821 0.38043338 0.8931123 -0.24004346 0.05606794
-0.5373683 0.25528997 3.6159303 0.36917388 0.83014381 -0.41781807 0.035336718
-0.53051406 0.25832498 3.6107845 0.34672901 0.82185549 -0.45203149 0.032660741
-0.5243867 0.25082952 3.6028624 0.10751129 0.88572586 -0.4515872 0.031655416
-0.50866181 0.25356171 3.6050429 0.11053014 0.92760152 -0.35684508 0.024999192
-0.48877376 0.2514973 3.6034513 0.097566783 0.96338981 -0.24972121 0.0088974983
-0.33272058 -0.0012130493 3.8873665 0.99696869 0.042873573 -0.064925373 0.083790131
-0.31814149 -0.039133012 3.87975 -0.96485537 -0.22274883 -0.13941674 0.045084994
-0.32029456 -0.022941038 3.8631563 -0.93869334 -0.32702965 -0.10911641 0.13176657
-0.31068334 -0.050354719 3.8556588 0.55761462 -0.82904649 -0.041805889 0.19153869
-0.3116329 -0.020487474 3.8484523 -0.88748902 -0.016464965 -0.46053454 0.16774248
-0.30842808 -0.021575432 3.8446369 0.95312572 -0.29112393 -0.082451105 0.085392892
-0.3068307 -0.014622948 3.847013 0.99695688 0.041176707 0.066192262 0.078041576
-0.30538327 -0.045394629 3.8381782 -0.90198749 -0.10359407 -0.41915008 0.094083756
-0.30460811 -0.033791509 3.8353546 0.9110412 0.40796816 -0.059715699 0.056561437
-0.30352533 -0.016152084 3.8417928 -0.90620679 0.3611829 -0.21985488 0.12838387
-0.29947105 -0.047025986 3.8312757 0.83499396 0.52163672 -0.17515774 0.077475719
-0.29706752 -0.047259558 3.8263245 0.66841143 0.73760962 -0.095698588 0.10281948
-0.33364144 0.23245589 3.645787 -0.089754961 -0.95967096 -0.26641288 0.15263426
-0.29682934 -0.01488292 3.8284147 0.89492249 -0.44147879 0.064885378 0.15052931
-0.29506576 -0.070676111 3.8151872 0.94421637 -0.062204029 -0.32339785 0.12280972
-0.29363346 -0.010100282 3.8327487 0.48209354 -0.87242454 -0.080381818 0.044341881
-0.26293531 0.05443171 4.0430183 -0.53308052 0.70320284 -0.47045827 0.064779036
-0.26129392 0.028012615 4.0254292 -0.4673484 0.44055384 -0.76648408 0.055758409
-0.28450248 -0.086308509 3.8001165 0.28071889 0.94386995 -0.17408744 0.080077946
-0.28486949 -0.054246992 3.7821548 -0.014887648 -0.99174356 -0.12736918 0.055153448
-0.29671538 0.17475078 3.7193727 -0.24112009 -0.60590321 -0.75811762 0.16483645
-0.27434817 -0.017977193 3.8103998 -0.67543733 0.36963648 -0.6380856 0.041288882
-0.27445412 -0.04329212 3.7922339 -0.92693394 0.36371079 -0.092238672 0.087451018
-0.2390572 0.04175273 4.0230665 -0.30643818 0.70420569 -0.64046073 0.054427423
-0.2720603 -0.032930713 3.7845621 -0.84825516 0.52297586 -0.083422787 0.17011717
-0.26988345 -0.038035896 3.7806809 0.69865441 -0.69441217 -0.17226043 0.10308331
-0.26716763 -0.029708227 3.7876668 -0.95121074 0.10376401 -0.29057047 0.094322599
-0.26400492 -0.032616805 3.779721 -0.66828465 0.72533262 -0.16519149 0.14639197
-0.27242437 0.14012657 3.756001 -0.27285755 -0.94798964 -0.16390345 0.09974087
-0.2617676 0.13318931 3.7528191 -0.03334808 -0.97925711 -0.19985826 0.11312031
-0.28028274 0.24095696 3.658715 -0.028618285 -0.99821961 -0.052332204 0.037003886
-0.25641382 0.14138494 3.744107 0.095100224 -0.83589679 -0.5405854 0.068035722
-0.24906355 0.14994001 3.737056 -0.042011429 -0.61367255 -0.78844213 0.10028903
-0.22809049 -0.011858404 3.7956738 0.84444141 -0.30249909 -0.44205534 0.096197337
-0.2250596 0.038347073 3.818013 0.0033495 -0.74184549 -0.67056257 0.045317195
-0.2253269 -0.17845395 3.7290249 -0.88914245 -0.42309999 -0.17439096 0.041064382
-0.21518968 -0.0058417292 3.8191829 -0.066277958 -0.2421509 -0.96797228 0.12802909
-0.22559318 -0.17372087 3.7243333 -0.88914233 -0.42310017 -0.174391 0.04106443
-0.21252374 0.07818763 3.8275704 -0.81370699 0.38934666 -0.43161318 0.07710366
-0.21102554 0.088664301 3.8287525 -0.81370747 0.38934621 -0.43161285 0.077103563
-0.21357952 0.055163641 3.8036339 -0.81902504 0.38218111 -0.42794347 0.073315054
-0.21004722 0.084743857 3.8230505 -0.81370652 0.38934723 -0.43161371 0.07710366
-0.21759869 -0.17616852 3.7042181 -0.83562958 -0.41522521 -0.35959858 0.034395747
-0.21794894 -0.16829158 3.6974654 -0.48314458 -0.79961097 -0.35664219 0.050803572
-0.20710626 0.080749497 3.8016808 0.84038496 -0.52153033 -0.14751035 0.09363696
-0.20544381 0.088985018 3.7974472 0.81720668 -0.55048412 -0.17070574 0.087319456
-0.2155512 -0.16699652 3.6907065 -0.91943043 -0.16243501 -0.35813782 0.11446705
-0.20397452 0.087482929 3.7909117 0.38890296 -0.86862254 -0.30700058 0.075296223
-0.21400428 -0.15844949 3.6838386 0.98533916 -5.6191384e-05 -0.17060693 0.16170862
-0.21205346 -0.16861652 3.6829305 -0.8439216 -0.12910108 -0.52070075 0.16692673
-0.20200075 0.093933068 3.7867625 0.3451452 -0.83539778 -0.42776778 0.082046509
-0.21063407 -0.17239743 3.6790786 0.66573614 0.72598809 -0.17244327 0.11743815
-0.19967014 0.095383711 3.7818677 -0.17095976 -0.86148876 -0.47813168 0.062130369
-0.19848974 0.098098911 3.7769659 -0.049790945 -0.86792839 -0.49418738 0.065662585
-0.20771 0.24235918 3.7555263 0.293275 -0.95599365 -0.0081213154 0.026444031
-0.20883897 -0.11913361 3.6708097 -0.026963376 0.50430608 -0.86310399 0.16065854
-0.18635587 0.069671333 3.8117428 -0.23733415 0.77591556 -0.58448923 0.18133099
-0.17766029 0.04142841 3.8430343 0.38652477 -0.57704556 -0.71945608 0.04098488
-0.15351579 0.014658126 3.8796606 -0.1348885 -0.94599527 -0.29478481 0.11112633
-0.18836237 -0.18947618 3.6687081 -0.34287268 -0.89394563 -0.28861669 0.027436992
-0.18366969 0.38064674 3.7928157 0.58735132 0.47036543 -0.65861589 0.0079977466
-0.17844746 -0.20541762 3.6932304 -0.43580538 -0.76057124 -0.48125356 0.079530776
-0.18891025 -0.15045245 3.6503975 -0.7611149 -0.21949174 -0.61035037 0.066179544
-0.16315997 -0.24134052 3.7160525 -0.99472684 -0.089225344 -0.05057076 0.13339633
-0.16530007 -0.22428676 3.7064745 0.56136757 0.82702512 -0.029931724 0.13038981
-0.17810342 -0.17064221 3.6439297 -0.50223362 -0.50914162 -0.69895357 0.18383604
-0.13608499 0.039423153 3.8777809 -0.23283577 0.73464102 -0.63725203 0.27500948
-0.13721105 0.036865391 3.8704576 -0.61897153 0.55622679 -0.55451411 0.10921983
-0.16232413 -0.21909098 3.7000477 -0.33585706 -0.46206576 -0.82078946 0.16523769
-0.15867783 -0.24301998 3.7090561 -0.80880028 -0.53516638 -0.2438015 0.080719717
-0.16010252 -0.23032014 3.7032146 -0.69625187 -0.18059151 -0.69470865 0.1508745
-0.13375159 0.043908618 3.8743298 -0.67587239 0.42652863 -0.60105729 0.081737794
-0.16690299 -0.20451334 3.6728418 -0.97125822 -0.22446643 -0.079197377 0.068519734
-0.15594991 0.12218383 3.7822475 0.15975803 -0.44301158 -0.88216674 0.086902231
-0.15368731 -0.25281546 3.7156467 0.52876931 0.84844118 0.02346519 0.047887489
-0.13055103 0.020342592 3.8707781 0.11512371 -0.18809322 -0.97538072 0.074128926
-0.15511517 -0.23022592 3.7013013 -0.67042798 -0.068743341 -0.73878318 0.18025047
-0.15506823 -0.2350127 3.6957357 -0.78410673 -0.54942405 -0.28863445 0.1133135
-0.12665977 0.045156103 3.8663855 0.14259531 0.95665973 -0.25390667 0.14294092
-0.14877838 -0.25171852 3.7059133 -0.41588676 -0.90520751 -0.08739306 0.11555054
-0.1585528 -0.19403785 3.6700761 -0.72739244 -0.47835386 -0.49201402 0.11442167
-0.11905401 0.049068194 3.8480871 0.49335927 -0.82908082 -0.26309991 0.12766859
-0.13834883 -0.26348606 3.6887856 0.84779793 0.52866554 0.041850273 0.063187473
-0.14674255 -0.20357223 3.6613584 -0.72961169 -0.32192406 -0.60335034 0.14402092
-0.14324884 -0.22411934 3.6627541 0.46132571 -0.83240438 -0.30705312 0.094256043
-0.10735074 0.051240623 3.8595371 0.53211695 -0.17405406 -0.82858717 0.16553755
-0.13159494 -0.26983666 3.6823936 0.71609014 0.54647315 -0.43426019 0.1375286
-0.12840958 -0.27884561 3.6831393 0.5037908 0.21066821 -0.83774322 0.20481279
-0.113823 0.27379438 3.831413 0.49292716 -0.69805366 -0.51936871 0.019095251
-0.135158 -0.20132148 3.6427321 -0.66417468 -0.12171341 -0.73760277 0.12592445
-0.12450918 -0.27789903 3.6726472 -0.77889717 -0.56663793 -0.2687763 0.14318563
-0.13501047 -0.18499863 3.6403129 -0.78651571 -0.086462408 -0.61148775 0.085763186
-0.13104495 -0.2199758 3.6484096 -0.64343518 -0.10157995 -0.75873095 0.071083933
-0.12047417 -0.28624934 3.6758211 0.84346592 0.53665841 0.023727663 0.081594504
-0.12491352 -0.25759768 3.6609335 -0.84654182 -0.023869459 -0.53178674 0.16130145
-0.12694728 -0.23899916 3.6493664 0.071651563 -0.98602182 -0.15042262 0.20188193
-0.11978406 -0.2645956 3.6554224 0.86019999 0.47627595 -0.1822556 0.22013903
-0.092420205 0.32417864 3.8626668 -0.024129871 -0.21172601 -0.97703117 0.077616595
-0.1133136 -0.29970187 3.6680579 0.82067764 0.5699054 -0.041182436 0.09786655
-0.12021685 -0.25194901 3.6460366 0.99585515 -0.010983941 -0.090287887 0.12035383
-0.11124717 -0.30621827 3.6711228 0.58428901 0.80949903 0.057599068 0.11621801
-0.091031112 0.38670331 3.8690047 0.20693962 0.61352044 -0.7620818 0.10445349
-0.11469411 -0.2903319 3.6539047 -0.87445796 0.48435909 -0.026824478 0.23638384
-0.11976949 -0.21179852 3.6295536 0.030078022 -0.51262659 -0.85808468 0.1333726
-0.11680456 -0.23870181 3.6299629 0.71632475 0.69538993 0.057547025 0.20454456
-0.11706682 -0.20979837 3.6253798 0.3953065 0.91587961 -0.069981322 0.19202879
-0.078149877 0.1027701 3.8342333 0.78282011 0.6079312 -0.13271157 0.12823036
-0.1088568 -0.29150641 3.6415451 -0.90306878 0.28520238 -0.32113317 0.22049719
-0.11220014 -0.26054198 3.630331 -0.50141227 0.787413 -0.35856181 0.10969581
-0.11360567 -0.24627788 3.6223152 0.95954359 0.24715687 -0.13486896 0.14124843
-0.1073866 -0.29959294 3.6331806 -0.2960448 0.91957551 -0.25833765 0.1269675
-0.070675641 0.38220391 3.8857772 0.56885022 0.51234269 -0.64336181 0.058463529
-0.067233898 0.071927965 3.8457458 -0.46952492 -0.88159454 -0.048346121 0.20988946
-0.11166043 -0.21003722 3.6197031 -0.95855469 0.10257842 -0.26580146 0.17904973
-0.10714525 -0.25495958 3.6219571 -0.95257604 -0.14357492 -0.26830053 0.2097002
-0.10858969 -0.23689024 3.6155314 0.7965799 -0.35956964 -0.48597342 0.066607982
-0.058845639 0.065516636 3.8589623 0.49876601 0.86643797 -0.022755153 0.19032089
-0.10474949 -0.29270366 3.6094449 -0.54608619 -0.71918994 -0.42959946 0.078112289
-0.09980619 -0.2761004 3.6297743 0.26344571 -0.47589546 -0.83911848 0.16194586
-0.10472286 -0.2543245 3.6140101 -0.51354367 -0.81087011 -0.28064674 0.12909359
-0.10127425 -0.25609499 3.6106131 -0.03374939 -0.96788877 -0.24910313 0.11882512
-0.098272786 -0.29633176 3.6042571 -0.50503683 -0.75459194 -0.41896155 0.067074388
-0.027781688 0.059103265 3.9056771 0.5669055 -0.63629127 -0.52321279 0.1190513
-0.051245537 0.30068883 3.8451059 0.85754669 -0.45362264 -0.24257013 0.056994878
-0.09371119 -0.28030229 3.5892043 -0.3989934 -0.70123547 -0.59082407 0.079826564
-0.088730045 -0.26108173 3.586092 -0.857104 0.15348631 -0.49174654 0.086498253
-0.083389908 -0.27061215 3.5702877 -0.2570703 -0.52781695 -0.8095209 0.14289036
-0.079789639 -0.2428588 3.5825119 -0.10135441 0.9251771 -0.36575219 0.12421038
-0.079502165 -0.24725193 3.5781736 -0.46956769 0.83974677 -0.27263817 0.22855797
-0.063691422 -0.30534035 3.6128905 0.7533201 -0.54523659 -0.36773068 0.13774091
-0.072950371 -0.24876121 3.5656176 0.66526061 0.69787169 -0.26533654 0.13617094
-0.070268959 -0.23404108 3.5649476 -0.84399599 0.073015563 -0.53135633 0.17397141
-0.068336688 -0.22643025 3.5578792 -0.74501443 0.66669005 0.021861097 0.12976484
-0.064653218 -0.22834045 3.5530465 -0.11888188 -0.97353417 -0.19518788 0.12933803
-0.051833577 -0.29780248 3.5835435 0.15130557 -0.58813423 -0.7944839 0.051889233
-0.06150179 -0.23148192 3.5497584 -0.40357387 -0.59308559 -0.6966905 0.17410715
0.045562852 0.37759805 3.9638479 -0.031314399 -0.99841326 0.046801757 0.055565435
-0.57709932 0.2881715 3.6820674 -0.058146324 0.92350656 -0.37914988 0.1045182
-0.23463294 0.040928196 4.0067916 -0.306438 0.70420593 -0.64046055 0.054427367
-0.1295027 -0.15400898 3.6204822 -0.078621954 -0.02146139 -0.99667352 0.089997463
-0.12332665 -0.1569763 3.6199203 -0.090129979 -0.12139542 -0.98850381 0.11066556
-0.14956166 -0.15205294 3.6269429 -0.37160468 -0.41660091 -0.82967079 0.069765784
-0.6058948 0.28763443 3.6501756 0.58628446 0.80729079 -0.06746839 0.097707249
-0.57143414 0.28157637 3.6397383 0.20061889 0.96225065 -0.18391766 0.09326081
-0.52587175 0.24961208 3.5938296 0.12035562 0.90147972 -0.41575101 0.030422863
-0.31450123 -0.0037878416 3.8477845 -0.70081699 0.56510681 -0.43532741 0.14010897
-0.31127387 -0.016491 3.8375525 0.96121788 -0.12071125 -0.24796999 0.1734847
-0.2993241 -0.014843022 3.8200855 -0.83993477 0.48031926 -0.25259271 0.10633426
-0.27868676 -0.05661172 3.7742667 -0.038924366 -0.99652874 -0.073588707 0.07019566
-0.25886741 0.19175702 3.7154109 -0.26234737 0.66773045 -0.6966418 0.074668385
-0.25109485 0.19335328 3.7171414 -0.16424078 0.75556546 -0.63414973 0.12182998
-0.21275537 -0.13870588 3.6662412 0.80958951 -0.11916235 -0.57477397 0.020854408
-0.17024943 -0.16775469 3.6305525 0.19880611 -0.13411477 -0.97081894 0.10433751
-0.16511567 -0.16928983 3.6283991 0.20161517 -0.092665419 -0.97507149 0.10201695
-0.15312225 -0.20858167 3.6571941 -0.48282063 -0.60448557 -0.63362569 0.22792904
-0.15483245 -0.15225521 3.630296 -0.018887985 0.3349579 -0.94204378 0.10358302
-0.14935341 -0.20281908 3.6538813 -0.53001517 -0.6920436 -0.49006075 0.19624038
-0.13936917 0.011151405 3.8664169 0.21301951 -0.36988923 -0.90432549 0.17868108
-0.14715557 -0.21119079 3.6514883 -0.6639837 -0.46944767 -0.5820176 0.14441748
-0.14971609 -0.15796567 3.6288753 -0.063800082 -0.12557635 -0.99003035 0.092895709
-0.14241745 -0.20307618 3.6430731 -0.60377669 -0.021475518 -0.79686415 0.16848674
-0.13922665 -0.19098818 3.6345696 -0.73637962 0.068214223 -0.67312098 0.18258187
-0.14100777 -0.1460574 3.6232181 -0.33353195 -0.22822535 -0.91469646 0.11956744
-0.12718335 0.032759752 3.8548121 0.88285452 -0.46849543 -0.032862239 0.21051446
-0.13374361 -0.23604417 3.6445546 -0.45673546 -0.13399385 -0.87945342 0.14536996
-0.13421251 -0.22452296 3.6431246 -0.56371087 -0.38569951 -0.73038751 0.22029848
-0.13269587 -0.24273752 3.645982 0.20443982 0.85904646 -0.46930104 0.22029932
-0.13580956 -0.16302653 3.6236579 0.094303399 -0.49669853 -0.86278462 0.20093799
-0.1362147 -0.15474139 3.6218326 0.025386751 0.0095163472 -0.99963248 0.12040414
-0.13240223 -0.19724408 3.6304407 -0.63814116 0.75558984 -0.14785065 0.22798504
-0.12972605 -0.19104171 3.6262953 0.48282212 -0.19983438 -0.85261303 0.20182675
-0.1312668 -0.16207187 3.6203265 0.030384077 -0.066921555 -0.9972955 0.10995243
-0.13011523 -0.1757333 3.6249812 -0.5150637 -0.101242 -0.85115188 0.027300909
-0.12820426 -0.20956248 3.6276972 -0.65983123 -0.17721516 -0.73021746 0.064641245
-0.12606315 -0.2367323 3.6365294 -0.91691071 0.20021901 -0.34523481 0.19810632
-0.12720449 -0.21615951 3.6296153 -0.43545604 -0.3995716 -0.80667263 0.081306964
-0.13006152 -0.15395851 3.6195219 -0.078621931 -0.021461388 -0.99667341 0.089997396
-0.12477796 -0.20644341 3.6233273 -0.89275712 -0.23640087 -0.38353527 0.12524356
-0.12452302 -0.16710304 3.6206536 -0.066879302 -0.12310821 -0.9901371 0.076580867
-0.12394875 -0.15691446 3.6188593 -0.11625061 -0.040412925 -0.99239737 0.045498986
-0.11415567 -0.2216301 3.6138468 0.18838453 0.80132383 -0.56779522 0.11903597
-0.110599 -0.24337348 3.6127572 0.77379215 -0.42346296 -0.47108892 0.1337035
-0.086062036 -0.26758361 3.5647504 -0.50710875 0.51801026 -0.68884403 0.19794875
-0.083133169 -0.25720242 3.5646904 -0.5282014 0.067433156 -0.84643728 0.15921573
-0.079601072 -0.2604284 3.5605292 -0.55368239 -0.45217547 -0.6992662 0.17842902
-0.078972206 -0.24242479 3.5704281 0.45149243 0.79200292 -0.41095719 0.13683787
-0.079247713 -0.25045609 3.5636144 -0.74000347 0.066306926 -0.66932678 0.1717079
-0.074694484 -0.25761217 3.556823 -0.50704408 0.044507533 -0.86077029 0.15891542
-0.072328791 -0.26484838 3.5560114 -0.50942224 -0.079632655 -0.85682422 0.14671598
-0.070049435 -0.25405759 3.5540524 -0.45434338 0.0013994422 -0.89082557 0.19562323
-0.06772542 -0.2604216 3.5543737 -0.24538089 0.035070799 -0.9687922 0.13251165
-0.067922316 -0.24431738 3.554023 -0.24454451 -0.62303388 -0.74298507 0.098621778
-0.06375248 -0.24348918 3.5496528 -0.25505137 -0.35714981 -0.89855051 0.10745691
-0.057442661 -0.25524437 3.5533333 0.13266873 -0.17454763 -0.97567016 0.10196772
-0.35153571 0.23480147 3.6333342 -0.16125078 -0.92765063 -0.33684167 0.088528804
-0.30624169 -0.045357689 3.8320501 0.83812833 0.52528584 -0.14702268 0.081969619
-0.30530316 -0.033622641 3.8304589 0.89026415 0.36867186 -0.26741502 0.056788459
-0.28522345 -0.086071119 3.7954164 0.15419677 0.94049686 -0.3028017 0.17488487
-0.29684854 0.17506042 3.7186244 -0.24112007 -0.60590327 -0.75811774 0.16483641
-0.27284747 -0.032886703 3.7796352 -0.8152619 0.55982333 -0.14814165 0.15578371
-0.26039883 -0.036960602 3.7641633 -0.51361293 0.7892679 -0.3365382 0.089121811
-0.27135125 0.16970636 3.7206082 0.037772525 -0.27009523 -0.96209234 0.13491927
-0.25740281 0.1409696 3.7383063 0.24067907 -0.77737319 -0.58117515 0.041577905
-0.24852131 -0.063869625 3.7265632 -0.30439723 0.73080802 -0.61095178 0.028892791
-0.22648919 -0.17331432 3.7195551 -0.81769204 -0.50175178 -0.2821787 0.056852385
-0.21580693 0.070961379 3.8147235 -0.85791343 0.30673477 -0.41218719 0.1056456
-0.21647575 -0.16656971 3.6859858 -0.91257584 0.010477379 -0.40877321 0.14532264
-0.21490021 -0.15806285 3.6792965 0.93326533 0.024659714 -0.35834014 0.13944621
-0.20323247 0.093663946 3.7803802 0.12860039 -0.85632175 -0.500175 0.091189183
-0.20987365 -0.11882628 3.6656587 -0.026962966 0.5043065 -0.86310369 0.16065881
-0.19148703 0.09132044 3.769176 -0.19964977 -0.70006853 -0.68559748 0.1536748
-0.1881648 -0.18487854 3.6568966 -0.34754458 -0.87934989 -0.32550964 0.040432006
-0.18469991 -0.18426548 3.6521654 -0.38469508 -0.79050303 -0.47656545 0.07918103
-0.18660715 -0.12899032 3.6452038 0.27798599 0.7319479 -0.62207401 0.045367442
-0.16518383 0.14496192 3.7791052 0.86672199 0.38415799 -0.31814399 0.12106217
-0.16485 -0.22785191 3.7013817 -0.47677273 -0.22740017 -0.84910363 0.16720556
-0.13664238 0.033447739 3.8674505 -0.79876572 0.11771241 -0.59001452 0.1647024
-0.16331697 -0.2185434 3.6955624 -0.65492529 -0.3529672 -0.66819686 0.1495162
-0.17879321 -0.1398029 3.6374965 0.24141513 0.58804369 -0.77196068 0.036188968
-0.17332844 -0.14454661 3.6361415 -0.090021215 0.39653727 -0.91359425 0.036343392
-0.15045577 0.10925877 3.7765005 0.37669343 0.37362528 -0.84764755 0.067338042
-0.16914348 -0.13558373 3.6399474 0.011995437 0.67025173 -0.74203688 0.043766499
-0.14938445 -0.24884218 3.6999917 -0.83404213 -0.45170817 -0.3167547 0.17329854
-0.16560325 -0.17373058 3.6321502 -0.79863268 -0.4601666 -0.3878563 0.16991158
-0.16525547 -0.16191693 3.6312416 0.054210849 -0.063267849 -0.99652314 0.072291963
-0.14836346 -0.22761038 3.6663606 -0.64478308 -0.51433527 -0.56543273 0.16707857
-0.1549246 -0.16419883 3.6315784 0.18136062 -0.53952688 -0.82220376 0.073561132
-0.13723166 -0.26169959 3.6804802 0.87423831 0.40405789 -0.2691555 0.10926607
-0.14535914 -0.19043604 3.6418679 -0.48456848 -0.18502514 -0.85496151 0.2136766
-0.1414146 -0.21243387 3.6480157 -0.73789203 -0.20614463 -0.64266604 0.078852095
-0.1413141 -0.1863628 3.6424475 -0.46574572 0.089501403 -0.88038087 0.1000791
-0.13526234 -0.20528263 3.6401803 -0.78062063 -0.080946393 -0.6197412 0.15364957
-0.13513984 -0.1808041 3.6315262 -0.74905157 -0.045340925 -0.66095835 0.10454988
-0.12909712 -0.22577006 3.640317 -0.73044056 -0.33432958 -0.59555036 0.08474987
-0.12802993 -0.23252903 3.6428368 -0.71244794 -0.084260873 -0.6966477 0.046636358
-0.12670623 -0.24130438 3.6418924 -0.79531032 0.37983465 -0.47244805 0.25227055
-0.12738544 -0.22381076 3.6358249 -0.75830108 -0.27928874 -0.58904767 0.11143743
-0.12638183 -0.19671243 3.628499 -0.62013847 -0.17467798 -0.76479799 0.11177018
-0.11919437 -0.2319354 3.6255817 0.73694879 -0.53016287 -0.41932526 0.18477368
-0.11566601 -0.25588766 3.6323755 -0.39306039 0.8890729 -0.23463356 0.21410117
-0.11801188 -0.23810226 3.6251769 -0.85046077 -0.34125471 -0.40032703 0.14179784
-0.11836594 -0.21988954 3.6213799 -0.90201914 -0.2494173 -0.35235268 0.13302232
-0.11466068 -0.24565223 3.6181843 0.87438178 -0.22004695 -0.43247646 0.1721369
-0.11526806 -0.21361029 3.6198113 -0.43220702 -0.38091335 -0.81737512 0.17472363
-0.11295174 -0.20946643 3.6146646 -0.88823426 0.086332127 -0.45120573 0.18358056
-0.10986294 -0.23631398 3.6106005 0.69792014 -0.34350914 -0.62841785 0.057231698
-0.10060041 -0.27594888 3.6267087 -0.10151285 -0.55944353 -0.8226288 0.09542156
-0.10591941 -0.25367066 3.6094213 -0.0060901488 -0.97471982 -0.22334749 0.058733884
-0.09673164 -0.24934939 3.6032972 0.28474885 -0.93201202 -0.22421376 0.20835064
-0.094370328 -0.28466722 3.5855386 -0.34073451 -0.58471918 -0.73620892 0.10815146
-0.06959793 -0.27017143 3.5574589 -0.28529191 -0.61301351 -0.73676515 0.14564604
-0.060187019 -0.26660848 3.5549166 0.047963422 -0.27155373 -0.96122736 0.053685445
-0.062984444 -0.23086669 3.5446885 -0.39349085 -0.65855455 -0.64145994 0.14327383
-0.049643651 -0.25071093 3.553894 0.28712615 -0.1343663 -0.94842196 0.1043881
-0.045630939 -0.26285478 3.5562561 0.90125155 0.21927431 -0.37371695 0.25280109
-0.60588264 0.28757852 3.6502073 0.58628464 0.80729073 -0.0674683 0.097707242
-0.59941506 0.27540383 3.6443524 -0.71250224 0.11892601 -0.69151807 0.10406379
-0.59903765 0.2805098 3.642072 -0.74000114 0.10960559 -0.66361499 0.10597292
-0.59184629 0.27779216 3.6401517 -0.48553041 0.71344495 -0.50522912 0.15651822
-0.59003812 0.28910193 3.6454582 0.42876512 0.90295327 -0.028911877 0.11613423
-0.5867511 0.27662879 3.6402357 -0.4252972 0.78417611 -0.45187405 0.1714042
-0.57993573 0.27931115 3.6389384 -0.062633321 0.98617584 -0.15340875 0.15676479
-0.55751854 0.27319047 3.6411042 0.11873533 0.98550123 -0.12119954 0.042755131
-0.54768628 0.27573773 3.6377754 0.30997452 0.93896681 -0.1491881 0.054555818
-0.54455578 0.2759259 3.6321867 0.37823233 0.88577354 -0.26897168 0.066934705
-0.53754044 0.25151408 3.6056561 0.34672913 0.82185549 -0.45203152 0.032660663
-0.53459501 0.25061184 3.598891 0.34672925 0.82185555 -0.4520314 0.032660689
-0.52652746 0.24933465 3.592031 0.12035556 0.9014796 -0.41575125 0.030422904
-0.52064383 0.24247013 3.5901737 0.11053009 0.92760152 -0.35684523 0.024999194
-0.49108461 0.25004461 3.5927937 0.097566769 0.96338981 -0.24972127 0.008897475
-0.3381215 -0.0062339352 3.8928289 0.99463737 0.1030523 0.0087703457 0.087578796
-0.32133487 -0.038843814 3.8678837 0.90734708 -0.4075301 -0.1031528 0.16458821
-0.32250807 -0.022897834 3.8549495 -0.89333212 -0.30616218 -0.32897207 0.15009959
-0.31750578 -0.034975082 3.864614 0.97339445 0.13223974 -0.1871253 0.18186596
-0.31665504 -0.051674768 3.8642952 -0.001446562 -0.99616528 -0.087479353 0.20747815
-0.31568661 -0.048232891 3.8551352 0.34830549 -0.86617112 -0.35837263 0.21666998
-0.31523246 -0.039978545 3.856837 0.49916983 -0.35203502 -0.79177076 0.24350542
-0.31332764 -0.05012254 3.84606 0.065270595 -0.97205853 -0.22548178 0.2029722
-0.37313786 0.22363441 3.6523507 -0.035501942 -0.99365336 -0.10673697 0.10917377
-0.31212941 -0.029826833 3.8310137 0.92958653 0.18127406 -0.32094949 0.093178943
-0.31089425 -0.021287801 3.8357964 0.98307377 0.12222501 -0.13648063 0.092790082
-0.25921747 0.050569266 4.0294352 -0.43964857 0.54706365 -0.71234167 0.045217481
-0.36833379 0.22035691 3.6542249 0.1700509 0.98402351 -0.052729104 0.096492559
-0.30866802 -0.045479409 3.8264072 0.71823603 0.60689062 -0.34032443 0.080249585
-0.3072575 -0.033501279 3.8259494 0.87140757 0.36449039 -0.3283225 0.078118071
-0.30608624 -0.015795164 3.8327143 0.69319016 -0.7183854 -0.058393169 0.087348819
-0.34793976 0.18715759 3.710815 -0.40624514 -0.85742438 -0.31589282 0.070919037
-0.30215469 -0.046728481 3.8218417 0.59020227 0.75807393 -0.27746192 0.098396711
-0.29969752 -0.047020297 3.8171306 0.59186172 0.78030062 -0.20206596 0.098133944
-0.29826099 -0.077444643 3.8170369 0.74738508 -0.53788579 -0.38999289 0.12870428
-0.35420996 0.21816379 3.6556706 -0.03324379 -0.95885056 -0.2819584 0.15867507
-0.29734498 -0.070531063 3.8072653 0.85588765 -0.45321226 -0.24910839 0.18713714
-0.35520434 0.22772144 3.6428483 -0.05264473 -0.81156582 -0.58188444 0.1289925
-0.29520202 -0.059694428 3.8085415 -0.97173512 -0.12377293 -0.20102526 0.15337825
-0.23425232 0.040885951 4.0076704 -0.30643782 0.70420617 -0.64046043 0.054427337
-0.34161723 0.21598224 3.6609106 -0.37740555 -0.89921892 -0.22129266 0.17167152
-0.2871688 -0.085928731 3.7910991 0.082935907 0.89688373 -0.43442056 0.14743808
-0.34731486 0.23378024 3.6275837 0.01271479 -0.88113415 -0.47269538 0.11358443
-0.31831446 0.16992186 3.7149985 -0.060058936 -0.78375483 -0.61815959 0.061974935
-0.27641201 -0.11964554 3.802393 0.83565277 0.54415792 0.074676491 0.0027838517
-0.33696592 0.22627263 3.6452174 0.14767583 -0.88197196 -0.44756818 0.2025966
-0.22311677 0.036741145 3.9958034 -0.52450061 0.13853875 -0.84006327 0.052664481
-0.28088048 -0.052102659 3.7734244 0.22099598 -0.9612534 -0.16478056 0.16938032
-0.27535591 -0.021204988 3.7938914 -0.94987887 0.1967658 -0.24292664 0.10430589
-0.27745417 -0.042851925 3.7823253 0.88907981 -0.40842205 -0.20670868 0.074550368
-0.34154135 0.24359468 3.6091175 0.26705593 -0.7986573 -0.53928429 0.034772076
-0.27492493 -0.032923464 3.77512 0.59677082 -0.79653066 -0.096971557 0.088470921
-0.26921073 -0.12697753 3.7787371 0.84418243 0.53595686 0.010311388 0.044731069
-0.27023584 -0.029464791 3.7776539 -0.56138581 0.75171447 -0.34608021 0.12985641
-0.29716542 0.17479129 3.7179196 -0.24112009 -0.60590333 -0.75811762 0.16483647
-0.32937527 0.24892329 3.6120391 -0.32255962 0.93830055 -0.1246886 0.12363226
-0.26671082 -0.032320209 3.7709794 -0.36019394 0.90350676 -0.2322409 0.09458337
-0.32343417 0.24761617 3.6137209 0.21712525 0.92284608 -0.31813782 0.10602929
-0.27431491 0.13944542 3.7498353 -0.2728577 -0.9479897 -0.16390339 0.099740937
-0.29133222 0.19293813 3.699388 -0.13254228 0.88639456 -0.44355088 0.20700039
-0.26250702 -0.036840413 3.7596962 -0.63264447 0.67959803 -0.37135899 0.092384085
-0.25737959 0.12677084 3.7883794 -0.46139383 -0.83335149 -0.30436996 0.076167233
-0.23874059 0.028964315 3.8147063 -0.83291847 0.20054828 -0.51577836 0.039036945
-0.26467752 0.1325351 3.7435424 -0.19862169 -0.91246426 -0.35771263 0.09795785
-0.27353212 0.16921474 3.7160275 0.77687383 -0.54966205 -0.30714598 0.1281808
-0.2294811 0.030535983 3.8160777 -0.17000976 -0.78606802 -0.5943011 0.043118894
-0.24061987 -0.17071877 3.7538822 -0.79200751 -0.60540724 -0.078777999 0.010965266
-0.25993624 0.14050697 3.7330194 0.19596463 -0.67915827 -0.70734853 0.077703618
-0.24100678 -0.16769458 3.7493958 -0.79200751 -0.60540748 -0.078777976 0.01096534
-0.25061435 -0.063769162 3.7222648 -0.36284471 0.68075413 -0.63633132 0.032042377
-0.29029912 0.24546856 3.6384258 -0.37207574 -0.92820215 0.00067382079 0.021849684
-0.22541608 0.041835491 3.8047216 -0.86433405 0.25427401 -0.43390262 0.033364892
-0.21996449 0.087000012 3.8217039 -0.91381568 0.2995317 -0.27426562 0.082849994
-0.22239743 0.07136371 3.8102665 -0.95339483 0.16328579 -0.25372428 0.073455818
-0.2525205 0.14929491 3.7263732 0.018053057 -0.57587838 -0.81733602 0.10714027
-0.21466795 0.088393345 3.8176386 -0.89682657 0.34933084 -0.27142233 0.075454339
-0.22828873 -0.17780034 3.720196 -0.76658946 -0.5633561 -0.30817291 0.058658823
-0.21380536 0.055042475 3.7941604 -0.88012177 0.38923016 -0.27181885 0.099538788
-0.22866486 -0.17299275 3.7152045 -0.76811814 -0.57022136 -0.29127678 0.058608044
-0.22729596 -0.16890305 3.7063608 -0.79275745 -0.4794237 -0.37641537 0.036483016
-0.21151848 0.062573567 3.7834282 -0.87867689 -0.089520209 -0.46894887 0.083041504
-0.17276987 0.0072556646 3.8892035 -0.41512826 0.8834272 -0.21731302 0.20543958
-0.23416123 0.2107852 3.7234735 0.71099442 -0.3934544 -0.58282131 0.065830983
-0.23555242 0.23771867 3.7084699 -0.21629106 -0.96598303 -0.14175642 0.094594754
-0.20611593 0.093130864 3.7745624 -0.31001413 -0.78053159 -0.54282755 0.10529224
-0.22125489 -0.16783464 3.6878452 0.10633919 -0.97734815 -0.18298264 0.19167595
-0.20220616 0.097450234 3.7660677 -0.79579842 -0.21482751 -0.56617481 0.074464723
-0.2186821 -0.16626261 3.6817 0.9973315 0.05664793 -0.046053123 0.25368318
-0.24569437 0.26660454 3.6559861 0.66842735 -0.52347738 -0.52837139 0.054875556
-0.21621016 -0.16906759 3.6774213 0.25148696 0.94317573 -0.21719554 0.088376388
-0.21703403 -0.15777402 3.6751747 -0.89270121 0.20841147 -0.39956126 0.18267794
-0.21932961 -0.080624215 3.6750183 0.76840591 0.59166759 -0.24388908 0.088453352
-0.21357216 -0.17169528 3.6707375 0.6085425 0.77114701 -0.18710496 0.12394576
-0.19532667 0.11082719 3.7511666 0.55068594 -0.60456377 -0.57554102 0.083413124
-0.18911789 -0.21102007 3.7266219 0.26615024 0.93335509 -0.24085775 0.012126711
-0.21374032 -0.13859518 3.6643562 0.68144155 -0.1285769 -0.72048968 0.022373311
-0.19191125 0.11673932 3.7491312 0.67686975 -0.51744413 -0.52354449 0.073345535
-0.21232168 -0.11853686 3.6609969 -0.087189175 0.32116464 -0.94300127 0.12868144
-0.19136758 0.1230817 3.7469079 0.68046969 -0.1372506 -0.71980786 0.060443874
-0.20301257 -0.1869379 3.6731851 -0.54346579 -0.82875794 -0.13343596 0.05964889
