ply
format ascii 1.0
element vertex 305
property float x
property float y
property float z
property uchar red
property uchar green
property uchar blue
end_header
-0.242524 0.485173 8.19355 28 35 39
-0.241171 0.462301 8.20585 150 159 159
-0.210216 0.451671 8.21571 139 140 141
-0.072883 0.0937546 8.44568 89 57 49
-0.028501 0.302283 8.39437 141 150 151
-0.0240429 0.308194 8.38879 73 79 85
-0.0184315 0.310039 8.38276 162 162 163
-0.0165494 0.282604 8.40156 68 51 49
-0.0161402 0.266784 8.40141 59 52 56
-0.0161402 0.266784 8.40141 59 52 56
-0.010981 0.318671 8.38255 30 36 40
-0.010981 0.318671 8.38255 30 36 40
-0.0118967 0.294312 8.39497 60 84 119
-0.0063442 0.291582 8.39524 254 254 254
0.0837624 0.219746 8.3475 31 38 42
0.0971277 0.211043 8.34074 53 54 57
0.101369 0.176131 8.35093 105 53 54
0.110955 0.200492 8.35204 162 162 163
0.146947 0.163608 8.39039 103 65 68
0.149129 -0.124466 8.53146 128 68 43
0.153818 -0.162367 8.55545 136 71 41
0.201183 -0.325086 8.6656 57 44 41
0.241303 -0.212089 8.62852 146 109 84
0.257004 -0.181724 8.62149 147 118 102
0.25785 -0.197268 8.6318 30 36 40
0.25785 -0.197268 8.6318 30 36 40
0.281336 -0.174938 8.62495 170 129 104
0.293323 -0.139164 8.60527 184 110 65
0.366447 0.248442 8.49841 75 42 37
0.369847 0.0419282 8.47114 29 35 40
0.359705 -0.191649 8.67788 61 50 53
0.386996 0.0124357 8.46745 30 35 42
0.386379 -0.0018251 8.46649 128 146 155
0.387126 -0.00727912 8.46179 78 96 120
0.40689 0.04051 8.47303 95 108 113
0.403611 -0.0337142 8.48529 82 84 87
0.437324 0.438925 8.44752 97 52 49
0.387087 -0.397021 8.81169 74 57 45
0.390203 -0.393066 8.81343 68 53 42
0.416041 0.0383716 8.46589 138 148 150
0.397084 -0.403843 8.8097 194 159 144
0.408582 -0.311553 8.77634 208 188 183
0.42797 0.0331603 8.47667 32 38 42
0.426831 0.00536517 8.48374 27 33 38
0.409398 -0.37861 8.80509 137 95 73
0.432977 0.0238655 8.48435 140 158 168
0.413484 -0.39914 8.81301 53 39 41
0.440177 -0.127227 8.66274 216 212 203
0.42474 -0.412217 8.82649 198 151 127
0.432067 -0.311477 8.78133 116 61 57
0.483674 0.434762 8.45747 102 54 50
0.456996 -0.185138 8.71723 73 65 59
0.458949 -0.19596 8.71733 171 141 114
0.467746 -0.209579 8.73502 171 126 102
0.495895 0.235615 8.55979 148 77 47
0.511302 0.427592 8.48266 108 56 52
0.528631 0.152376 8.59293 29 24 34
0.52731 0.00852801 8.64636 51 35 41
0.539371 0.202469 8.58729 42 42 52
0.539321 0.0837411 8.62465 126 76 57
0.558898 0.198983 8.60357 18 18 28
0.558898 0.198983 8.60357 18 18 28
0.559425 0.125064 8.63274 56 42 40
0.541953 -0.166351 8.5679 196 192 181
0.544304 -0.15371 8.56797 105 114 107
0.571905 0.114103 8.65884 128 95 76
0.557566 -0.144388 8.56468 106 116 108
0.557885 -0.156566 8.57265 199 195 179
0.565982 -0.146953 8.56475 232 232 232
0.60986 0.342172 8.5681 52 31 36
0.600212 0.0829996 8.685 147 118 118
0.598243 0.00165745 8.69943 44 37 42
0.584418 -0.107549 8.56193 102 111 104
0.588218 -0.119737 8.56467 239 239 240
0.649746 0.124976 8.69234 162 133 127
0.657173 0.104772 8.70604 41 26 33
0.657173 0.104772 8.70604 41 26 33
0.666977 0.27921 8.62915 65 48 41
0.66844 0.29233 8.62522 150 122 112
0.787261 0.138857 8.77695 158 167 167
0.787635 0.138467 8.77844 158 167 167
0.787635 0.138467 8.77844 158 167 167
0.791085 0.0924965 8.78095 94 50 48
0.797334 0.128378 8.77769 76 54 41
0.798426 0.115964 8.77214 174 143 128
0.805061 0.125662 8.77452 83 59 46
0.808305 0.0998279 8.78734 193 169 158
0.81926 0.101415 8.78991 104 74 62
0.931988 0.000858214 8.8987 180 152 136
1.03174 -0.549602 9.30201 156 156 157
1.03174 -0.549602 9.30201 156 156 157
1.05787 -0.548761 9.31246 144 167 184
1.05762 -0.567532 9.30119 184 184 185
1.09431 -0.499407 9.24471 42 50 59
1.1209 -0.436625 9.40753 39 48 52
1.12349 -0.430153 9.40544 149 171 186
1.12349 -0.430153 9.40544 149 171 186
1.13454 -0.462628 9.33195 146 168 183
1.15083 -0.423766 9.34431 28 36 40
1.14547 -0.46837 9.31518 149 170 186
1.17476 -0.581094 9.41479 144 102 84
0.908013 0.0306232 9.08096 117 66 58
-0.828409 0.0659346 2.78516 80 100 129
-0.828438 0.0660148 2.78448 143 156 160
-0.82845 0.0659203 2.78414 57 45 47
-0.828484 0.0662019 2.78345 61 84 119
-0.828217 0.0663551 2.78458 146 159 164
-0.828043 0.0662529 2.78439 95 106 109
-0.827761 0.0664002 2.78598 38 46 51
-0.828001 0.0653238 2.78121 102 53 54
-0.827362 0.0661545 2.78215 51 34 41
-0.823884 0.0649194 2.79486 151 75 50
-0.82014 0.0640999 2.80697 29 36 41
0.306009 -0.0160962 2.91037 164 130 102
0.305991 -0.0177842 2.91108 159 112 83
0.307106 -0.0158319 2.91084 174 135 111
0.306993 -0.0169823 2.91114 164 125 98
0.309095 -0.0141338 2.91003 169 108 79
0.313091 0.011861 2.9013 99 50 48
0.312191 -0.00941292 2.90435 80 83 85
0.31264 -0.00938866 2.90393 86 88 90
0.312988 -0.00866078 2.90414 44 48 53
0.314142 0.00589465 2.90417 82 44 36
0.313456 -0.00700659 2.90388 28 34 38
0.313606 -0.00610226 2.90343 34 41 45
0.31343 -0.00771829 2.9041 146 164 173
0.313371 -0.00894245 2.90447 62 65 69
0.311472 -0.0154992 2.91323 170 147 146
0.314081 -0.00790234 2.9046 36 40 45
0.311281 -0.0235608 2.92002 60 49 51
0.31171 -0.0257183 2.91998 149 170 185
0.317482 -0.00144184 2.90956 148 92 63
0.318306 0.000458314 2.90968 43 37 39
0.31782 -0.00828068 2.91244 87 45 45
0.318586 -0.0158964 2.90919 149 78 56
0.319981 -0.0139098 2.90852 102 111 103
0.319808 -0.0154219 2.90911 135 73 55
0.320125 -0.00531573 2.91304 136 80 55
0.320133 -0.00950405 2.9112 100 56 51
0.322042 0.00762795 2.90926 51 31 36
0.320612 -0.0139991 2.90874 189 185 169
0.320801 -0.0144972 2.90887 134 73 56
0.320994 -0.00350234 2.91361 141 107 106
0.3216 -0.0132865 2.90921 133 69 49
0.322106 -0.00747814 2.91556 89 64 56
0.32268 -0.00758789 2.91599 38 31 36
0.33073 -0.00260233 2.91991 175 144 131
0.346847 -0.0287399 2.94822 149 170 186
0.347182 -0.02743 2.9488 28 35 40
0.347069 -0.0295729 2.94854 149 171 186
0.348302 -0.030884 2.95192 112 75 64
0.348297 -0.0347387 2.95217 131 93 78
-0.241592 -0.0630499 5.86825 174 135 111
-0.0872849 -0.0353445 5.84961 103 112 105
-0.0848815 -0.0575393 5.8556 142 75 56
-0.16856 -0.141243 7.24501 71 74 79
-0.0152605 0.325673 8.35172 128 146 155
0.256713 -0.199946 8.61898 31 37 42
0.44976 -0.12818 8.68162 145 80 61
0.227317 -0.318208 8.71537 170 134 106
0.234228 -0.136493 8.6644 124 67 53
0.304155 -0.19053 8.70754 31 38 43
0.310065 -0.199359 8.71345 30 37 41
0.312514 -0.186111 8.71089 152 122 104
0.322245 -0.18056 8.71195 168 132 105
0.476722 -0.048341 8.6582 178 178 179
0.518296 0.0201691 8.65676 33 39 43
0.537004 0.0141732 8.6664 216 218 220
0.39872 -0.0851774 8.43223 149 78 55
0.397993 0.4839 8.57749 113 59 55
0.568642 0.19152 8.59903 27 25 35
0.680553 0.0220051 8.61582 118 85 61
0.685218 -0.0403048 8.60012 40 33 38
1.42981 -0.759016 8.83672 33 43 48
1.43924 -0.786734 8.83422 79 82 85
1.46543 -0.81227 8.83987 149 149 150
1.49417 -0.815172 8.86191 72 75 78
1.51646 -0.806984 8.87809 160 160 161
0.392054 -0.0862769 8.42134 142 69 50
0.401561 -0.0832136 8.44606 128 65 47
0.52953 0.135229 8.5405 145 93 66
0.54082 0.156359 8.56171 51 41 43
0.87952 0.0280783 8.76942 160 130 110
0.51963 0.126948 8.5517 145 91 64
0.526042 0.204628 8.57474 132 106 97
0.571488 0.205155 8.59184 32 27 34
0.594667 0.0451331 8.55854 136 76 50
0.616228 0.22565 8.61636 171 94 48
0.657012 0.312722 8.65775 93 49 50
0.672011 0.307598 8.66044 172 131 105
0.327567 -0.0432333 7.81524 154 81 50
0.00808043 0.249958 8.38175 50 62 69
0.0386399 0.23758 8.39307 98 72 73
0.146304 0.0745038 8.40939 153 79 56
0.155045 0.0185793 8.38644 167 86 52
0.287677 -0.194104 8.37421 123 65 47
0.337715 -0.0492632 8.4964 32 38 46
0.456981 0.25043 8.57087 154 77 41
0.488157 -0.199253 8.54102 159 87 58
0.485201 -0.251619 8.52458 199 194 179
0.47122 -0.276337 8.41713 178 150 139
0.537148 0.15309 8.57222 54 42 42
0.502378 -0.302857 8.42339 167 120 91
0.504715 -0.4488 8.37749 54 43 45
0.540177 -0.213773 8.52952 76 82 78
0.562892 -0.153509 8.54383 88 96 89
0.57266 -0.136304 8.55023 97 105 97
0.576716 -0.124114 8.54989 189 185 170
0.596203 -0.0908926 8.55449 115 124 116
0.61955 -0.0477119 8.54959 52 34 39
0.621826 -0.0783757 8.54363 160 158 143
0.631228 -0.0436236 8.55449 120 129 121
0.629916 -0.0917688 8.54202 206 201 186
0.650729 0.0168767 8.57123 142 83 56
0.646364 -0.0746878 8.54922 100 60 55
0.66614 0.0808934 8.58972 142 103 76
0.737466 -0.0480795 8.57503 125 100 94
0.746414 -0.0673159 8.57784 53 45 48
0.754339 -0.0365183 8.58558 125 91 66
0.76692 0.0176293 8.60084 131 72 49
0.767692 -0.0591811 8.58384 129 102 87
0.768874 -0.302095 8.56467 46 50 56
0.802114 0.0591527 8.61855 52 35 40
0.795385 -0.264336 8.5758 29 35 39
0.990184 0.0966442 8.68004 186 157 142
0.999346 0.0706969 8.67262 83 47 47
0.327548 -0.15004 8.26436 124 65 45
0.39454 -0.0482503 8.41895 141 69 45
0.514202 -0.209314 8.46064 154 83 53
0.520247 -0.184361 8.4791 163 83 51
0.648067 0.303278 8.66759 94 51 52
0.661346 0.296927 8.67238 171 130 103
0.561101 0.197371 8.61345 31 27 34
-0.241081 0.486556 8.17884 36 45 50
257.859 445.98 -418.363 52 56 60
238.325 412.754 -386.788 53 57 61
-6.94848 -10.7945 12.4035 132 74 57
-7.05081 -11.0033 12.5886 152 80 53
-7.08894 -11.0912 12.6634 140 72 59
-7.19077 -11.2259 12.8053 129 71 57
261.256 451.84 -423.964 52 56 60
224.22 388.164 -363.239 53 57 61
-3.35648 -5.44778 10.5468 128 65 47
72538.8 124493 -118388 127 64 47
-0.219806 -0.00653928 5.38532 150 84 68
-77870.1 -134243 127904 228 220 217
331.054 571.418 -538.276 175 115 82
230442 226613 -171586 28 34 38
224.858 389.295 -364.309 53 57 61
-3.45158 -5.67504 10.6372 116 64 52
-158315 -273110 259877 147 167 176
-159255 -274947 261462 30 36 42
-83276.2 -143752 134167 100 118 126
-84481.1 -145726 136437 146 167 178
1.12838 -0.4559 9.40294 144 167 183
1.18387 -0.540617 9.31742 137 157 172
1.13601 -0.47316 9.33106 31 39 44
1.12864 -0.380451 9.36025 95 64 57
1.07418 -0.382333 9.35771 144 167 184
0.994286 -0.223135 9.35787 106 65 48
0.983098 -0.244858 9.35061 96 59 46
0.966678 -0.231992 9.3474 144 167 183
0.655075 0.0921842 9.17747 234 226 222
0.717748 0.0274036 9.11302 36 42 47
0.702936 0.04472 9.11498 163 138 110
0.712601 0.0440802 9.11205 148 167 182
1.18316 -0.437128 9.42233 107 74 56
1.14978 -0.413637 9.39272 109 66 53
1.05278 -0.36145 9.29878 106 65 48
1.04248 -0.345128 9.30072 146 168 184
1.02776 -0.318992 9.30662 119 82 53
1.05867 -0.267275 9.41514 98 63 56
-0.00243105 0.347158 8.30768 157 167 168
1.02662 -0.165248 9.45273 98 63 56
1.04267 -0.337862 9.32609 109 71 57
1.0169 -0.295922 9.32969 96 59 46
1.01377 -0.303503 9.31672 144 167 183
1.17765 -0.493087 9.38399 141 165 182
1.14886 -0.504375 9.3175 144 167 184
1.12159 -0.4426 9.33945 144 167 184
1.11278 -0.441477 9.32813 143 166 183
0.979617 -0.197111 9.37102 107 66 49
1.02287 -0.316706 9.31506 107 68 51
0.71142 0.00846947 9.14817 234 227 224
0.0285891 0.256036 8.31621 63 48 42
-0.0313236 0.342207 8.31049 157 167 169
1.05021 -0.52824 9.37688 138 162 181
1.08401 -0.415681 9.41096 22 29 38
1.12076 -0.290748 9.35464 32 38 41
1.1115 -0.320063 9.36993 17 24 33
1.07913 -0.407628 9.40584 31 38 42
1.09246 -0.360992 9.38472 99 64 55
1.08154 -0.387005 9.39544 173 140 134
1.09564 -0.318386 9.36588 28 36 42
1.06081 -0.432337 9.41495 27 33 38
1.08798 -0.306056 9.35534 145 167 184
1.05285 -0.37441 9.38617 34 39 44
1.01346 -0.286601 9.33324 98 59 46
1.00071 -0.279178 9.32249 119 83 53
-0.2635 0.509691 8.19653 30 36 39
4947.24 -17379.4 -81743.4 206 147 85
1.10815 -0.411605 9.41277 145 167 183
0.98692 -0.279862 9.33065 107 65 47
0.158087 0.25351 8.53077 84 54 47
1.10069 -0.352133 9.33869 146 168 183
