# .PCD v0.7 - Point Cloud Data file format
VERSION 0.7
FIELDS x y z normal_x normal_y normal_z curvature
SIZE 4 4 4 4 4 4 4
TYPE F F F F F F F
COUNT 1 1 1 1 1 1 1
WIDTH 377
HEIGHT 1
VIEWPOINT 0 0 0 1 0 0 0
POINTS 377
DATA ascii
-0.091534741 -0.22778071 2.4337022 -0.20131563 0.51154912 -0.835338 0.020587461
-0.07954482 -0.23147361 2.4321234 -0.20131549 0.511549 -0.83533812 0.020587429
-0.07954482 -0.23147361 2.4321234 -0.20131549 0.511549 -0.83533812 0.020587429
-0.071142897 -0.2331214 2.4330165 -0.054671418 0.3948628 -0.91711205 0.03409702
-0.072245389 -0.22620964 2.4332635 -0.20131542 0.51154894 -0.83533806 0.020587523
-0.074922502 -0.20566849 2.4401073 -0.16338244 0.45872277 -0.87342978 0.023077322
-0.062952787 -0.21898735 2.4357808 -0.20131545 0.511549 -0.83533806 0.020587521
-0.062952787 -0.21898735 2.4357808 -0.20131545 0.511549 -0.83533806 0.020587521
-0.06102648 -0.21553548 2.4368951 -0.24932301 0.54547024 -0.80018771 0.021325152
-0.046499025 -0.20716341 2.4393749 -0.26662162 0.53964925 -0.79855597 0.02079436
-0.047507562 -0.18893437 2.4452736 -0.014454757 0.29580122 -0.95514011 0.00019758966
-0.044048417 -0.1932361 2.4437623 -0.01449057 0.29536578 -0.9552744 0.0002631465
-0.055420913 -0.14787994 2.4574239 -0.1228508 0.56856304 -0.81341481 0.068942301
-0.045658905 -0.18503267 2.4462686 -0.021625435 0.30440786 -0.95229632 0.00048119048
-0.038371794 -0.19809216 2.4419942 -0.0039852555 0.28575006 -0.95829594 0.00016520554
-0.039057437 -0.16278763 2.4534619 0.045088079 0.44970819 -0.89203674 0.04146263
-0.032598533 -0.15818983 2.4553194 0.095978938 0.55000991 -0.82962477 0.04956134
-0.027605331 -0.17067049 2.4500248 -0.021102166 0.31439564 -0.94905746 0.0016244624
-0.025971554 -0.17695761 2.447814 -0.021102151 0.31439561 -0.94905746 0.0016245019
-0.027454868 -0.17074965 2.4497738 -0.021102125 0.31439561 -0.94905746 0.0016245019
-0.027454868 -0.17074965 2.4497738 -0.021102125 0.31439561 -0.94905746 0.0016245019
-0.020934587 -0.18950677 2.443994 -0.015906794 0.2896741 -0.95699316 0.001323497
-0.021759707 -0.1760443 2.4485619 -0.024077628 0.28170145 -0.95919991 0.002483424
-0.021751558 -0.17148823 2.4498699 -0.026861049 0.3112407 -0.94995141 0.0020976102
-0.017572496 -0.17644319 2.4487691 -0.024077626 0.28170145 -0.95919997 0.002483424
-0.017572496 -0.17644319 2.4487691 -0.024077626 0.28170145 -0.95919997 0.002483424
-0.017467957 -0.17654432 2.4486129 -0.02407762 0.28170148 -0.95919991 0.0024834238
-0.017467957 -0.17654432 2.4486129 -0.02407762 0.28170148 -0.95919991 0.0024834238
-0.014761358 -0.17899734 2.4477875 -0.02407763 0.28170148 -0.95919991 0.0024834238
-0.014761358 -0.17899734 2.4477875 -0.02407763 0.28170148 -0.95919991 0.0024834238
-0.0095730433 -0.17512091 2.4498599 -0.026805624 0.27379718 -0.96141386 0.002086024
-0.0069805807 -0.1801582 2.4464803 -0.034674663 0.29323572 -0.95541114 0.0020269773
-0.0069805807 -0.1801582 2.4464803 -0.034674663 0.29323572 -0.95541114 0.0020269773
-0.0069032442 -0.1705351 2.4490309 -0.042402931 0.28445956 -0.95774984 0.0013179916
-0.0024127511 -0.17882541 2.4469926 -0.042403031 0.28445977 -0.95774978 0.0013179918
-0.003350863 -0.17331927 2.4482791 -0.042402931 0.2844595 -0.95774984 0.0013179702
-0.0056930245 -0.16022739 2.4525456 -0.041441213 0.28515956 -0.95758373 0.0011713735
-0.0031575444 -0.16479135 2.4513042 -0.041441385 0.28515986 -0.95758367 0.0011714397
-0.001506402 -0.17007107 2.4495766 -0.041441347 0.28515983 -0.95758367 0.0011714835
0.0046964153 -0.16824898 2.4505174 -0.030035419 0.28691131 -0.95748621 0.001182478
-0.028272426 -0.045810532 2.4443574 0.936306 -0.015139689 -0.35085875 0.12198417
0.00017697446 -0.12736835 2.4657063 -0.44657317 -0.058784038 -0.89281404 0.092905208
0.01181131 -0.1644198 2.4508755 0.65576971 -0.67298698 -0.34213242 0.12152797
0.01181131 -0.1644198 2.4508755 0.65576971 -0.67298698 -0.34213242 0.12152797
0.0016284499 -0.11471921 2.4691141 -0.54711318 0.105391 -0.83039743 0.091323487
0.0016284499 -0.11471921 2.4691141 -0.54711318 0.105391 -0.83039743 0.091323487
0.015408912 -0.16531011 2.4506583 0.38585559 -0.054815315 -0.92092925 0.1084373
0.010171795 -0.1419052 2.459301 -0.11126211 0.3675198 -0.92333621 0.085524291
0.018780777 -0.16389921 2.451858 0.60040647 -0.71763843 -0.35285565 0.10860055
0.019022351 -0.16372028 2.4513104 0.54656327 -0.79380774 -0.26671696 0.092272438
0.013586646 -0.12325232 2.4650383 -0.13689245 0.33282438 -0.93299967 0.081589662
0.0061898343 -0.084077753 2.4832926 -0.35816357 0.15681724 -0.9203952 0.092063546
0.018144708 -0.1334192 2.4612739 -0.18381818 0.058717288 -0.98120499 0.060835153
-0.0048176697 -0.045004703 2.4463656 -0.061019458 -0.14063403 -0.9881795 0.10333273
0.020397799 -0.12189139 2.4661984 -0.040714432 0.25381726 -0.9663949 0.058686674
0.029609954 -0.15097381 2.4547055 -0.1221862 0.37552398 -0.91872311 0.036210906
0.028858876 -0.13751632 2.4602828 -0.038793977 0.3667042 -0.92952847 0.013070689
0.028858876 -0.13751632 2.4602828 -0.038793977 0.3667042 -0.92952847 0.013070689
0.034692723 -0.14657745 2.4567511 -0.16844615 0.35432869 -0.91982448 0.04112741
0.025581377 -0.11225947 2.4524798 -0.025432883 -0.031478822 -0.99918079 0.095875598
0.039350074 -0.14354996 2.4578273 -0.15907694 0.35267434 -0.9221254 0.020966725
0.042392164 -0.14801167 2.4586167 -0.10056732 0.30241778 -0.94785535 0.014138257
0.038532849 -0.13167074 2.4614718 -0.2589677 0.29219756 -0.92062825 0.035166241
0.015049987 -0.033800405 2.4548311 -0.27880582 -0.3277837 -0.9026767 0.098594606
0.015049987 -0.033800405 2.4548311 -0.27880582 -0.3277837 -0.9026767 0.098594606
0.044680275 -0.13764925 2.4600482 -0.12528615 0.32603395 -0.93701929 0.014073022
0.044562005 -0.1243095 2.4638124 -0.23038091 0.067075819 -0.97078598 0.066699602
0.048083026 -0.13889696 2.4577267 -0.11662974 0.31880641 -0.94061685 0.013607783
0.045178663 -0.1212334 2.4655442 -0.26927942 0.0047046198 -0.96305066 0.073069297
0.045178663 -0.1212334 2.4655442 -0.26927942 0.0047046198 -0.96305066 0.073069297
0.047202483 -0.1161015 2.4669697 -0.36135766 -0.065011449 -0.93015814 0.082991548
0.049559221 -0.11769722 2.4665506 -0.21789992 -0.13400376 -0.96672773 0.075237319
0.032825876 -0.049744021 2.4872637 0.10861698 -0.11973625 -0.98684627 0.16532527
0.054404009 -0.13692455 2.4578965 -0.13648309 0.26449174 -0.9546814 0.039055068
0.06076885 -0.13624087 2.4584143 -0.28732163 0.3319858 -0.89846075 0.084076561
0.063959196 -0.12932177 2.4604926 -0.24916007 0.13429984 -0.95910525 0.12460826
0.066032894 -0.13336046 2.4592907 -0.35407761 0.29827645 -0.88637471 0.095180899
0.064710133 -0.12433956 2.4624543 -0.29449087 -0.020345906 -0.95543766 0.13773549
0.064234577 -0.12062795 2.4637175 -0.4431493 -0.29918012 -0.84505028 0.11336401
0.041262094 -0.032750368 2.4595649 -0.089565627 0.050578084 -0.99469584 0.18232448
0.031079574 0.018513473 2.3908691 0.45732695 0.43308562 -0.77671677 0.00086115533
0.075169995 -0.11633427 2.4626422 -0.4779776 0.77692765 -0.40978125 0.199278
0.035067685 0.013698742 2.3912904 0.48307133 0.39885756 -0.77945805 0.0032309815
0.035067685 0.013698742 2.3912904 0.48307133 0.39885756 -0.77945805 0.0032309815
0.038674396 0.014597211 2.3933349 0.48307127 0.39885744 -0.77945811 0.0032309508
0.0379721 0.018848848 2.3943858 0.46334061 0.43369487 -0.77280289 0.0010325806
0.041756984 0.021117881 2.3975377 0.46334061 0.43369484 -0.77280289 0.001032606
0.084967457 -0.10265858 2.4692183 0.63188922 -0.3990114 -0.66445911 0.095771216
0.047697328 0.0046288697 2.3915792 0.48235419 0.39569888 -0.78150934 0.0033263145
0.0844073 -0.096747011 2.4712231 -0.50055331 0.84502548 -0.18809123 0.084688984
0.082603358 -0.088443667 2.4748502 0.16960746 0.39242417 -0.90401137 0.097959332
0.040284198 0.047077935 2.4121268 0.46848857 0.4389376 -0.76671523 0.00055338553
0.091751993 -0.10639292 2.468327 -0.30797145 0.75483674 -0.57911581 0.090112187
0.08081352 -0.055074558 2.4884017 0.20435348 0.40814334 -0.88975203 0.14824165
0.089476146 -0.085601889 2.4757524 0.022403691 0.22226872 -0.97472805 0.12381067
0.040159095 0.079467639 2.4313402 0.49529245 0.45124626 -0.74233568 0.00049419067
0.079519406 -0.039016355 2.4963684 0.24056128 -0.027272675 -0.97025079 0.16783343
0.045045443 0.058817495 2.4213853 0.49449012 0.44896698 -0.74425012 0.00039649385
0.046720922 0.05220256 2.4176447 0.48702431 0.44350573 -0.75240284 0.00047983954
0.056152429 0.014551593 2.4025545 0.46615472 0.43997699 -0.76754159 0.00097905856
0.050139401 0.044201877 2.4155548 0.48702434 0.44350573 -0.75240284 0.00047986975
0.055082835 0.032457765 2.4129891 0.47732818 0.43849626 -0.76149774 0.00062224158
0.055082835 0.032457765 2.4129891 0.47732818 0.43849626 -0.76149774 0.00062224158
0.041986048 0.091574401 2.4403098 0.50404 0.44598284 -0.73962355 0.00043783867
0.060321283 0.011955658 2.403584 0.48757923 0.3898471 -0.78120792 0.0032110114
0.060321283 0.011955658 2.403584 0.48757923 0.3898471 -0.78120792 0.0032110114
0.061851535 0.0068398775 2.4029489 0.48506248 0.3799744 -0.78761274 0.0029436687
0.095971324 -0.08931911 2.4744904 0.27897528 -0.18790525 -0.94173473 0.14425255
0.046170235 0.077516526 2.4334128 0.49529231 0.45124632 -0.74233568 0.00049412873
0.058838736 0.04273878 2.4209516 0.49117792 0.45531872 -0.74258268 0.00086718221
0.098929651 -0.075367652 2.4786582 -0.22646566 0.35300761 -0.90779889 0.077739842
0.10561666 -0.10104782 2.4674463 -0.26062113 0.61830693 -0.741467 0.059138361
0.069507435 0.0056829927 2.4041233 0.49388126 0.3816601 -0.78129184 0.0029467281
0.050378628 0.097918414 2.4496024 0.50402915 0.44860399 -0.73804408 0.00044197839
0.10698248 -0.088060535 2.4721344 -0.41170597 0.59879148 -0.68698394 0.070704788
0.10768505 -0.077627271 2.4771578 -0.26527363 0.37516144 -0.88819128 0.081848308
0.073823281 0.030279221 2.4238663 0.49046388 0.463397 -0.73804361 0.00102304
0.056838688 0.10773445 2.4606364 0.50402921 0.4486039 -0.73804408 0.00044200072
0.079564288 0.0069091208 2.4145505 0.49326393 0.39358807 -0.77574426 0.003222204
0.11498421 -0.089616105 2.4714046 -0.5232839 0.47370923 -0.70835966 0.11204297
0.1100194 -0.066947557 2.48019 -0.30984655 0.16008599 -0.93721271 0.15715666
0.081452958 0.012571669 2.4178259 0.48461354 0.39678434 -0.77955884 0.0033389202
0.074788563 0.049478274 2.4365551 0.50137883 0.46042863 -0.73254675 0.00073186489
0.078183994 0.034676887 2.4277513 0.49612489 0.4537077 -0.74027658 0.00099249603
0.074385129 0.05342795 2.4392512 0.50150996 0.45534542 -0.73562783 0.00068045629
0.1147932 -0.077870622 2.4765985 -0.51498741 0.36996076 -0.77325094 0.07829728
0.07989186 0.029673837 2.4275446 0.49094051 0.46397206 -0.73736525 0.00097246259
0.11770892 -0.085897148 2.4721684 -0.61313564 0.39158472 -0.6860947 0.10030159
0.083435282 0.022130294 2.4248939 0.4850395 0.45806578 -0.74492437 0.0010178179
0.069235213 0.096112803 2.4580367 0.50379562 0.45357022 -0.73516262 0.0004870382
0.12082741 -0.078487389 2.4753413 -0.63163316 0.50862986 -0.58509421 0.062348682
0.086242832 0.028387148 2.4279332 0.49092677 0.46516457 -0.73662257 0.00080671144
0.086811297 0.033196818 2.4340093 0.49084443 0.45880157 -0.74065697 0.00071658933
0.081360713 0.061402015 2.4469099 0.50552517 0.4501262 -0.73609143 0.00067397859
0.09315525 0.010350234 2.4237361 0.4936808 0.41681275 -0.76324731 0.0035524247
0.085174203 0.049036801 2.4442434 0.49457166 0.47098115 -0.73046261 0.00050742907
0.11830974 -0.052725904 2.4872079 -0.4085176 0.14883415 -0.90053415 0.10843154
0.093541607 0.015103237 2.4272056 0.48793513 0.45925 -0.74229968 0.00078789133
0.078687914 0.089454554 2.4629838 0.49801129 0.44946486 -0.741597 0.00036501192
0.078823067 0.089451559 2.4626997 0.49801132 0.44946483 -0.74159712 0.00036495543
0.094965853 0.046037059 2.4473338 0.49457169 0.47098094 -0.73046279 0.00050738483
0.10956617 -0.0002155994 2.4285481 0.51440483 0.3466939 -0.78434116 0.12645599
0.098491326 0.062772967 2.4613817 0.5000782 0.45823458 -0.73480803 0.0012048131
0.11450719 0.0069694016 2.4361732 0.55194712 0.34076408 -0.76107436 0.047789555
0.10507551 0.06921687 2.4694138 0.48962572 0.43770051 -0.75411201 0.0011301404
0.11447593 0.042403355 2.4582043 0.48737046 0.47974798 -0.72959709 0.00094963983
0.11447593 0.042403355 2.4582043 0.48737046 0.47974798 -0.72959709 0.00094963983
0.11644261 0.038513061 2.4572124 0.48760411 0.47791398 -0.73064381 0.00095301139
0.12368271 0.043809809 2.4660609 0.4652656 0.49071297 -0.73670125 0.0015005071
0.13387077 0.016809464 2.4552789 0.47183985 0.39126572 -0.79011279 0.045987397
0.13687721 0.032503102 2.4628515 0.45693791 0.3211796 -0.82948869 0.037111115
0.16661507 -0.078772448 2.4369588 0.27375391 -0.84340698 -0.46230242 0.11697908
0.14183418 0.050551157 2.483644 0.42456222 0.44785425 -0.78687578 0.00258052
0.13191776 0.096434936 2.498702 0.44926393 0.41691831 -0.79015261 0.0022280114
0.17179444 -0.0594607 2.4486227 -0.10619835 -0.2405156 -0.96481818 0.20484245
0.15098083 0.042016659 2.4840772 0.40126747 0.44846693 -0.79866254 0.003180946
0.15289024 0.037586112 2.4784136 0.43774569 0.36773083 -0.82045889 0.014330331
0.19015443 -0.12617017 2.4075098 0.17496946 -0.9803744 -0.090840183 0.2310545
0.19015443 -0.12617017 2.4075098 0.17496946 -0.9803744 -0.090840183 0.2310545
0.16902325 -0.013755964 2.4541786 0.32704061 0.41664726 -0.84820366 0.097430848
0.15963741 0.055282976 2.4932382 0.37461555 0.46764773 -0.80060524 0.0038477359
0.18487331 -0.049613908 2.4541812 0.097176798 0.64223737 -0.76032084 0.076053686
0.19156946 -0.062347028 2.4488962 0.05194138 0.57609254 -0.81573248 0.073038504
0.17158388 0.02682923 2.480582 0.25001246 0.47967207 -0.84107578 0.062048975
0.17158388 0.02682923 2.480582 0.25001246 0.47967207 -0.84107578 0.062048975
0.19094007 -0.059218798 2.4494038 0.051941387 0.57609254 -0.81573248 0.073038504
0.16356944 0.082008019 2.510525 0.35137579 0.44384852 -0.82433826 0.0037118495
0.23368974 -0.24227315 2.3676119 -0.3647922 -0.12980367 -0.92199653 0.06562531
0.23368974 -0.24227315 2.3676119 -0.3647922 -0.12980367 -0.92199653 0.06562531
0.19712648 -0.068540208 2.4430773 0.077132754 -0.1915431 -0.97844863 0.14805144
0.20537825 -0.10266479 2.424598 0.23980434 0.49395102 -0.83576685 0.019965021
0.19977091 -0.05916534 2.4494855 0.20271769 0.47876546 -0.85421842 0.064902551
0.19977091 -0.05916534 2.4494855 0.20271769 0.47876546 -0.85421842 0.064902551
0.20925806 -0.10287014 2.4247375 0.23980446 0.49395099 -0.83576691 0.019965144
0.17384201 0.068953574 2.5057528 0.15600063 0.64113986 -0.75140101 0.034536041
0.17852911 0.088075429 2.5214229 0.15982908 0.6382134 -0.75308579 0.033231311
0.21142673 -0.072114974 2.4418838 0.20179135 0.44451275 -0.87274772 0.10431313
0.21142673 -0.072114974 2.4418838 0.20179135 0.44451275 -0.87274772 0.10431313
0.20677845 -0.041698631 2.4596336 0.053508546 0.74449205 -0.66548359 0.070204295
0.20677845 -0.041698631 2.4596336 0.053508546 0.74449205 -0.66548359 0.070204295
0.21300134 -0.053812463 2.453716 0.042895213 0.52197689 -0.85188037 0.0059109754
0.21300134 -0.053812463 2.453716 0.042895213 0.52197689 -0.85188037 0.0059109754
0.18846777 0.06437894 2.5072041 0.14887159 0.64035773 -0.75351131 0.033180684
0.18846777 0.06437894 2.5072041 0.14887159 0.64035773 -0.75351131 0.033180684
0.21503453 -0.063575275 2.4464791 0.20734589 0.43156663 -0.87792832 0.1502164
0.2132128 -0.045537878 2.4584599 0.042895131 0.52197695 -0.85188025 0.0059109102
0.26076469 -0.25091067 2.372102 -0.62114251 -0.29155901 -0.72744441 0.10467649
0.21895625 -0.045690645 2.458638 0.042895149 0.52197695 -0.85188031 0.0059109428
0.22276346 -0.058326576 2.4514484 0.20734578 0.43156689 -0.87792814 0.15021645
0.22276346 -0.058326576 2.4514484 0.20734578 0.43156689 -0.87792814 0.15021645
0.22553824 -0.052748963 2.4540927 0.20734577 0.4315668 -0.87792814 0.15021653
0.20500128 0.063081942 2.5110424 0.14887153 0.64035779 -0.75351119 0.03318077
0.20728205 0.072267324 2.5161099 0.14887153 0.64035773 -0.75351131 0.033180743
0.20566116 0.093784615 2.5288892 0.14887168 0.64035761 -0.75351137 0.033180684
0.21677561 0.082703441 2.5298345 0.14887144 0.64035791 -0.75351113 0.03318074
0.27935296 -0.22686276 2.3691833 0.77077454 0.47991756 -0.41902953 0.044383295
0.29266253 -0.24636614 2.3786721 0.71074897 0.54628485 -0.4431805 0.061766732
0.28787458 -0.23120289 2.3736162 0.77077436 0.47991741 -0.41903001 0.044383354
0.22571391 0.087950222 2.5307925 0.14887157 0.64035767 -0.75351125 0.033180747
0.29356942 -0.24104683 2.3791819 0.71075255 0.54628462 -0.44317469 0.0617663
0.29417387 -0.22264937 2.3755682 0.77077401 0.47991756 -0.41903052 0.044383436
0.24105163 0.082301185 2.5318913 0.14887133 0.64035785 -0.75351125 0.033180773
0.33542332 -0.2279406 2.3882203 0.14771332 0.42312843 -0.89394796 0.0017027841
-0.072529539 -0.22573672 2.4295273 -0.20131543 0.51154894 -0.83533806 0.020587495
-0.068541184 -0.2271118 2.4106226 -0.054671373 0.39486283 -0.91711205 0.034097083
-0.072410263 -0.22656231 2.4336994 -0.20131546 0.511549 -0.83533812 0.020587523
-0.0576762 -0.22530903 2.5170531 -0.51149452 0.14622886 -0.84675294 0.0097022606
-0.070319504 -0.14226942 2.550715 -0.41733506 -0.4608756 -0.78321457 0.15188889
-0.058860701 -0.16206177 2.5309749 -0.48436022 -0.36977744 -0.79288071 0.15409538
-0.039770763 -0.19683187 2.5060554 -0.55124372 -0.011413379 -0.83426619 0.070412062
-0.03905414 -0.17678662 2.5117009 -0.54630595 -0.030056763 -0.83704627 0.088008344
-0.033266429 -0.1616236 2.5101814 -0.55102521 0.075501978 -0.83106589 0.1229094
-0.021840237 -0.15415193 2.5015051 -0.48328456 0.033866439 -0.87480801 0.12032343
-0.011176495 -0.13574633 2.4990194 -0.67704403 -0.057136029 -0.73372126 0.04940521
0.0081440331 -0.1558539 2.4791 -0.88167721 0.012979642 -0.47167429 0.21533017
0.017344298 -0.15682395 2.4705186 -0.84271824 0.51412237 -0.15970002 0.10651837
0.017054779 -0.08261843 2.4933734 -0.31432384 0.13241082 -0.94003606 0.099880159
0.048144076 -0.087107792 2.4651697 -0.39082533 -0.069845326 -0.9178111 0.13521262
0.068876266 -0.10488654 2.4456506 -0.63165289 -0.096693389 -0.7691977 0.17234756
0.1187645 -0.067044176 2.4217255 -0.5893569 0.026994478 -0.80742162 0.15691002
0.1158766 -0.032956876 2.4345603 0.024803193 0.35170779 -0.93578124 0.17487717
0.16314307 -0.052969735 2.3646045 -0.78214431 0.057671212 -0.62042266 0.051753491
0.16631104 -0.04490599 2.3653359 -0.5338676 0.63092947 -0.56295061 0.12534134
0.18025385 -0.077566959 2.342253 -0.47634587 -0.81091005 -0.33988157 0.14208649
0.18316357 -0.067818597 2.3455408 -0.49468139 -0.8413105 -0.21791506 0.18850201
0.054957572 -0.12266176 2.4567409 -0.39921942 -0.062258728 -0.91473913 0.11953175
-0.091076739 -0.24660787 2.5337245 -0.82783133 0.41037402 -0.38247687 0.16154996
-0.071609132 -0.24109884 2.5179553 -0.81747425 0.5417307 -0.19561142 0.088775866
-0.063651398 -0.19195354 2.52738 -0.27256677 -0.063154615 -0.96006197 0.033628907
-0.048365962 -0.18965201 2.5134077 -0.38917994 -0.041132558 -0.92024291 0.079893485
-0.036291566 -0.20230936 2.4997222 -0.54684156 -0.094431177 -0.83189374 0.081406817
-0.025090674 -0.16858631 2.5002944 -0.49477595 0.070838846 -0.8661285 0.11624584
0.027934615 -0.12485603 2.4713485 -0.045537107 0.18011883 -0.98259026 0.099535808
0.027921617 -0.11131339 2.4754908 -0.077311501 -0.072903685 -0.99433798 0.077398747
0.044927429 -0.095760435 2.4673679 -0.42357054 -0.11351663 -0.89872235 0.093560278
0.055066995 -0.10807748 2.4557474 -0.40731356 -0.52661467 -0.74617201 0.14040489
0.079938285 -0.11826501 2.4343021 -0.651905 -0.15093051 -0.74312842 0.12127969
0.090532012 -0.090004914 2.4340034 -0.51322621 -0.010544068 -0.85818863 0.026315147
0.09751904 -0.10393696 2.424588 0.6105184 -0.27920875 -0.74115431 0.17264897
0.098328047 -0.090173945 2.4285977 -0.074800543 -0.078627668 -0.99409384 0.2165176
0.099259466 -0.080289528 2.4304464 -0.23886219 -0.11246566 -0.96451873 0.10899252
0.12524045 -0.077560484 2.4133506 -0.66107142 0.27795154 -0.69694155 0.14569747
0.12810807 -0.056374129 2.4184709 -0.64887369 0.45576856 -0.60929304 0.26535362
0.13535839 -0.070873328 2.4084256 0.26586744 -0.95096105 -0.15807453 0.24554451
0.1456255 -0.051732961 2.4120431 0.45719683 0.53323001 -0.71178418 0.16463545
-0.033182252 -0.1617709 2.5097294 -0.55102521 0.075501971 -0.83106595 0.12290947
-0.011183636 -0.13590501 2.4999359 -0.69964617 -0.045102362 -0.71306461 0.04766266
0.08755438 -0.1056407 2.4322774 -0.28996477 -0.19571362 -0.93681198 0.14904268
0.10936828 -0.08873143 2.421921 -0.38431668 -0.0049404106 -0.92318809 0.11695624
0.1283752 -0.081021994 2.4089797 -0.40240121 -0.07284639 -0.91256046 0.15131949
-0.10182113 -0.25326806 2.5293241 -0.85007197 0.52321124 -0.060229916 0.06822519
-0.091213524 -0.24145932 2.5253704 -0.82783163 0.41037419 -0.38247594 0.16154982
-0.084754094 -0.21662796 2.5214493 -0.36033556 -0.028161995 -0.93239754 0.023302617
-0.082947783 -0.15998173 2.5120938 -0.3933849 -0.10364602 -0.91351295 0.14417465
-0.081799783 -0.15179405 2.5106905 -0.46064702 -0.81756639 -0.34552795 0.14429921
-0.082312152 -0.14172615 2.5104418 -0.39421684 -0.83034718 -0.39384854 0.16255447
-0.077437326 -0.14286108 2.5100074 -0.39421716 -0.83034694 -0.39384887 0.16255462
-0.060306657 -0.15167515 2.5133789 -0.41733512 -0.46087644 -0.78321409 0.15188886
-0.058245681 -0.15573849 2.5144446 -0.41733521 -0.46087721 -0.78321362 0.15188898
-0.042007744 -0.17215489 2.5028424 -0.62858331 -0.073529802 -0.77425861 0.10693155
-0.019633554 -0.19621629 2.4938066 -0.55469537 0.078789376 -0.82831478 0.041852519
-0.029457726 -0.15580082 2.5023718 -0.46852401 -0.017696913 -0.88327348 0.11377974
-0.0065123807 -0.18558311 2.4859579 -0.58620435 0.79653722 -0.14796264 0.12600002
-0.0021920109 -0.17904484 2.4867322 -0.78680998 0.44072691 -0.43207616 0.18903369
-0.020051081 -0.15020835 2.5007842 -0.48328456 0.033866495 -0.87480801 0.12032341
0.0061559062 -0.17334402 2.4788854 0.16495755 -0.97282779 -0.16246574 0.10178278
-0.011075326 -0.12712419 2.4861083 -0.69894576 0.31203729 -0.64351195 0.077799886
0.0084434049 -0.16591127 2.4807191 -0.61814266 -0.62394977 -0.47810706 0.19211541
0.012420069 -0.16979305 2.4782171 -0.92720854 0.29959178 -0.22478676 0.17127836
0.01911447 -0.1686195 2.4754906 -0.6231758 0.78037661 0.051616188 0.084401853
0.00059789442 -0.11933093 2.4831567 -0.64679015 0.040643804 -0.76158416 0.084016442
-0.0069219624 -0.076841965 2.4649508 0.28125834 -0.18624103 -0.94138616 0.092423618
0.028660787 -0.13599187 2.4644942 -0.038793977 0.36670417 -0.92952842 0.013070625
0.027995687 -0.12219279 2.4675384 -0.022905827 0.046250138 -0.9986673 0.10859026
0.035461213 -0.13041368 2.4649599 -0.13024451 0.2897746 -0.94819146 0.034260061
0.0028240068 -0.016674206 2.456913 -0.021261452 -0.68635315 -0.72695756 0.050452661
0.043988038 -0.11414868 2.4577134 -0.22170997 -0.37327918 -0.900837 0.18566731
0.034683544 -0.092158996 2.4600337 -0.33616811 -0.088255189 -0.93765777 0.094209552
0.041123182 -0.10521957 2.4587252 -0.37670833 -0.12348962 -0.9180637 0.11064932
0.025853451 -0.075770713 2.4675381 -0.56688082 -0.19880204 -0.79945219 0.094325915
0.026679227 -0.056123357 2.4562852 -0.43316948 -0.24776688 -0.86658865 0.084113792
0.053907719 -0.1173854 2.4536233 -0.61440402 -0.40917045 -0.67460155 0.10717479
0.045714192 -0.085642733 2.4508688 -0.49837619 -0.12011104 -0.85860032 0.067097157
0.055188071 -0.10557031 2.452035 -0.65003794 -0.23277183 -0.72337258 0.11278755
0.013897004 -0.012938422 2.4663525 0.0016686388 -0.52072227 -0.85372448 0.099721096
0.067838781 -0.10433973 2.4452579 -0.4978992 -0.20001258 -0.84385508 0.17214394
0.084932551 -0.11815266 2.4359484 -0.26101279 -0.25540149 -0.93093628 0.14326006
0.068876378 -0.082636952 2.4419425 -0.47700861 -0.028749399 -0.87842828 0.026289104
0.08127708 -0.10491905 2.4368737 -0.74584401 0.2165813 -0.62992811 0.1253645
0.062672138 -0.054064415 2.4416225 -0.50285369 0.070304804 -0.86150759 0.11442779
0.06968917 -0.062007796 2.4386003 -0.52950889 -0.0084324805 -0.84826255 0.056775156
0.08604718 -0.085149355 2.4329336 -0.49274242 -0.045795768 -0.86896932 0.025598397
0.092974789 -0.097106218 2.4312379 0.6535725 -0.5968796 -0.46537912 0.21816838
0.090656094 -0.087633513 2.4302812 -0.6098243 0.15110959 -0.77799755 0.12510355
0.086735457 -0.078149356 2.4324782 -0.46435398 -0.048262738 -0.88433373 0.025976313
0.098378405 -0.087919757 2.4252741 -0.074801311 -0.078626864 -0.99409384 0.21651788
0.082103223 -0.039069727 2.4300923 -0.19022888 -0.071766175 -0.97911322 0.14648271
0.09553349 -0.066561587 2.4264615 -0.54128337 0.0067078257 -0.84081352 0.077776536
0.087196454 -0.047686595 2.4281178 -0.44496101 0.10907108 -0.88888311 0.061484393
0.10446558 -0.064946644 2.4211216 -0.32997635 0.058767937 -0.94215804 0.091476992
0.11070558 -0.07538636 2.4192519 -0.34356403 -0.023450017 -0.93883651 0.17387223
0.11866267 -0.085273005 2.4148946 -0.69076693 0.55295265 -0.46592319 0.15344359
0.1171648 -0.058860309 2.4102218 -0.54405969 0.27758738 -0.79179811 0.08202336
0.11999039 -0.062762186 2.4102781 -0.53283203 0.24006023 -0.81145614 0.088770308
0.13361746 -0.071628518 2.4029996 -0.40240121 -0.07284639 -0.91256046 0.15131949
0.13768956 -0.062798761 2.4005222 -0.65169412 0.3175424 -0.68881172 0.1076585
0.12965709 -0.011113363 2.3959253 0.48077095 0.56166768 -0.67334133 0.124616
0.10369898 -0.044344697 2.4805622 -0.42318386 0.02569267 -0.90567952 0.10975055
-0.086447671 -0.22333927 2.530102 -0.36033547 -0.028162098 -0.9323976 0.023302583
-0.040553883 -0.17277147 2.5095634 -0.54630601 -0.030056776 -0.83704621 0.08800827
0.039925765 -0.11055142 2.4644833 -0.3811174 -0.11503167 -0.91734248 0.11303639
0.068818681 -0.1257765 2.4417508 -0.6451574 -0.1986427 -0.73777568 0.11003552
0.10963696 -0.078741595 2.4232466 -0.33659971 -0.27791238 -0.89970291 0.10926782
-0.010442231 -0.17213731 2.4876254 -0.54033273 0.0047483672 -0.84143806 0.042360045
0.18712276 -0.045373209 2.4339046 0.099090621 0.54631096 -0.83170033 0.1651987
0.19891851 -0.058973361 2.4438312 0.32356006 0.40875259 -0.85336405 0.1772819
0.20197225 -0.04165969 2.4266329 0.32355979 0.40875217 -0.85336441 0.17728162
0.17184356 -0.059599847 2.4485838 -0.1061983 -0.24051541 -0.9648183 0.2048424
0.19191855 -0.062440757 2.4481626 0.051941406 0.5760926 -0.81573254 0.073038496
0.16273767 -0.078237683 2.4083345 0.1646191 -0.98472649 -0.05669409 0.09861993
0.18011963 -0.044683639 2.4662645 -0.021622974 0.13861755 -0.99010992 0.2046728
-0.054077394 -0.15679395 2.481745 -0.26319599 -0.95755321 -0.11755785 0.064567558
-0.0058332346 -0.14194494 2.4835103 -0.68576741 -0.10044085 -0.7208569 0.060748648
-0.021646928 -0.15898895 2.4729445 -0.1579168 0.9367395 -0.31238031 0.092174128
-0.0057792715 -0.26214647 2.4245524 -0.099720992 0.39300257 -0.91411412 0.019318311
-0.015557103 -0.24213305 2.4083154 -0.11144652 0.39820996 -0.91049904 0.02552009
0.06112529 -0.21060376 2.4259136 -0.1472754 0.43693522 -0.8873542 0.02305395
0.066954091 -0.19827233 2.4293418 -0.15364754 0.43216816 -0.88860738 0.023946287
0.064622842 -0.18456504 2.4210219 -0.1533982 0.43631777 -0.88662046 0.025591198
0.077099361 -0.19231629 2.4342277 -0.1340632 0.44787216 -0.88398963 0.026488457
0.078128263 -0.18172775 2.4345448 -0.17680404 0.38874379 -0.90422267 0.042922348
0.074250884 -0.16257334 2.423393 -0.2615419 0.28135607 -0.9232738 0.063409254
0.09973003 -0.16344844 2.4451289 -0.075008944 0.28848428 -0.95454198 0.081485279
-0.008541259 -0.057415679 2.3725209 0.44129479 -0.69635004 -0.56599963 0.13151641
0.10025342 -0.1534498 2.4456494 -0.064370237 0.30597016 -0.94986248 0.093642116
0.10030494 -0.14347139 2.4427574 0.029974613 -0.077274203 -0.9965592 0.16699679
-0.011624656 -0.044963662 2.3705871 0.66490519 -0.72849792 -0.16489992 0.085630685
0.080897868 -0.10808969 2.4075422 -0.55740088 0.032849509 -0.82959336 0.1907097
0.11000228 -0.13833091 2.4478967 0.22216679 0.022786237 -0.97474235 0.17514123
0.10209365 -0.12760322 2.4356017 0.27542359 -0.21035974 -0.93802488 0.082572006
0.082516968 -0.098572768 2.4035103 -0.77304476 0.5783689 -0.26055917 0.12903252
0.12622663 -0.12995262 2.4600732 0.097510599 0.33746147 -0.9362753 0.10934167
0.11342373 -0.11456036 2.4422121 0.49999481 -0.28482944 -0.81784922 0.14463939
0.09325435 -0.08981435 2.4157169 -0.69278032 0.51630419 -0.5034734 0.14702405
0.12881905 -0.11441213 2.4584739 0.014386521 0.3485631 -0.93717492 0.16073218
0.12050118 -0.10270425 2.4464126 0.87112188 -0.004305853 -0.49104792 0.14008594
0.12910372 -0.094622262 2.4504056 -0.98353708 -0.17943503 -0.021399938 0.2561487
0.12310377 -0.084800608 2.4406929 0.7334528 -0.62142813 -0.27545261 0.12356257
0.15116408 -0.10352331 2.4713101 0.12395453 0.011567545 -0.99222046 0.16347192
0.071212687 -0.019859456 2.401027 0.51308286 -0.051277794 -0.85680598 0.017610045
0.12713729 -0.065269314 2.4371669 0.83807266 -0.42887107 -0.33720005 0.15403835
0.13833697 -0.075897411 2.4507058 0.2811375 -0.82662064 -0.48750386 0.1677421
0.12188569 -0.048109356 2.420434 -0.38123053 0.32177928 -0.86667252 0.075232938
0.1434982 -0.066566028 2.4496992 0.48842224 -0.77902997 -0.39313611 0.14691909
0.15338232 -0.048111677 2.4525635 0.064009994 0.10357685 -0.99255961 0.14792305
0.17780986 -0.070463166 2.4839063 -0.23590782 -0.19420975 -0.95217127 0.15703779
0.15063907 -0.037784278 2.4459572 0.46125329 0.0088393372 -0.88722456 0.17950527
0.14198759 -0.02339866 2.4259052 0.75681198 0.31610781 -0.57211143 0.1652208
0.15606171 -0.025382873 2.44434 0.46634692 0.38288108 -0.79744762 0.13979276
0.1622337 -0.031210091 2.4519405 0.13622582 0.13510284 -0.98142236 0.14442347
0.1813219 -0.037082642 2.4751592 -0.0032618495 0.070445478 -0.99751031 0.1367906
0.21711867 0.044251546 2.4560843 0.24029359 0.48789161 -0.83917862 0.03266269
0.17703131 -0.083461411 2.3329904 -0.4867909 -0.76169294 -0.42761955 0.073685288
0.18784909 -0.062783524 2.3625746 -0.64785129 -0.76112306 -0.031312741 0.18564108
0.11276492 -0.080962442 2.4618959 -0.7960065 -0.17566632 -0.57923663 0.15857531
0.11138561 -0.079982631 2.4908051 -0.23756887 0.34294596 -0.90881741 0.077563703
0.031517621 -0.19057164 2.426116 -0.11854789 0.45375991 -0.88320345 0.010885268
0.054834116 -0.11370113 2.4372871 -0.51426232 -0.49445871 -0.70074588 0.071263343
0.077986948 -0.14573786 2.439779 -0.33138359 0.24869256 -0.91013008 0.10067424
0.094290644 -0.05616026 2.4532866 -0.3792161 -0.91969198 -0.10179319 0.21513987
0.12183797 -0.071869269 2.4568722 -0.86168534 0.064663082 -0.50330621 0.18360268
0.15348007 -0.11387906 2.464895 0.1303159 0.03234924 -0.99094462 0.14262097
0.11057238 -0.016544381 2.4608638 -0.039958201 -0.61437708 -0.78800005 0.20280631
0.13745254 -0.055328231 2.462882 -0.59183002 0.32788017 -0.73636395 0.074266165
0.14368057 -0.023239413 2.4676559 -0.19578354 -0.381879 -0.9032371 0.14191122
0.17408034 -0.086686157 2.4721766 0.13726427 -0.49708155 -0.85677791 0.13342148
0.18365452 -0.080472901 2.47664 -0.64329404 0.33375642 -0.68904251 0.15880714
