ply
format ascii 1.0
element vertex 1270
property float x
property float y
property float z
property uchar red
property uchar green
property uchar blue
end_header
-1.1938 -0.030214 2.68956 111 110 110
-1.19376 -0.0316577 2.68955 61 70 79
-1.19247 -0.0340004 2.68967 56 56 56
-1.19355 -0.0325352 2.68895 103 107 115
-1.19352 -0.0282069 2.68875 59 60 61
-1.19356 -0.0208043 2.68722 82 94 101
-1.19237 -0.0348939 2.68697 158 148 141
-1.1939 -0.0293449 2.68404 59 68 77
-1.1865 -0.0413804 2.6841 53 58 57
-1.18654 -0.0333184 2.67403 161 159 158
-1.17821 -0.0133601 2.66843 116 110 104
-1.18121 -0.0093332 2.66777 174 170 168
-1.17937 -0.00584298 2.66598 58 64 74
-1.17882 -0.000891674 2.66525 150 149 152
-1.18485 0.00686696 2.66212 114 115 116
-1.17596 -0.00437053 2.66275 80 89 100
-1.18351 0.00858934 2.66025 58 65 75
-1.17478 0.00355319 2.65895 146 139 138
-1.17754 0.0290634 2.64817 62 76 92
-1.20651 -0.00786486 2.70729 79 85 92
-1.20772 -0.00852442 2.7057 21 25 28
-1.20697 -0.0104031 2.70577 188 185 185
-1.20067 -0.00211455 2.70583 33 42 59
-1.19952 0.00350309 2.70505 28 30 35
-1.20046 0.00267974 2.70471 45 50 58
-1.1976 0.0214435 2.70325 94 109 122
-1.19247 0.0279671 2.7034 86 99 109
-1.19793 0.0107538 2.70312 29 30 34
-1.1954 0.0234627 2.70276 194 187 175
-1.20475 0.00431582 2.70211 77 91 104
-1.20267 -0.0123461 2.70181 127 130 133
-1.19947 0.0123889 2.70184 47 51 57
-1.20547 0.00502128 2.70143 48 56 64
-1.2048 -0.0106821 2.70125 186 184 182
-1.2065 -0.00892084 2.70105 32 38 43
-1.20611 -0.00986071 2.70101 154 156 158
-1.20064 0.0218607 2.70116 50 45 51
-1.19524 0.0199648 2.7012 158 166 166
-1.20597 0.00663032 2.70057 41 47 52
-1.20086 0.0282512 2.70069 89 100 109
-1.20398 -0.00858483 2.70061 21 25 26
-1.20345 -0.0110456 2.70061 37 45 52
-1.20904 0.00147066 2.69885 54 64 76
-1.20192 -0.0119857 2.69932 147 147 150
-1.208 -0.00181429 2.69875 88 95 102
-1.19576 -0.0273123 2.69898 78 84 91
-1.19635 -0.0244445 2.69885 51 59 69
-1.20675 0.010035 2.69802 47 53 55
-1.19658 -0.0261798 2.69872 91 98 106
-1.20606 0.0111986 2.69784 53 58 59
-1.19719 -0.0255662 2.6982 38 43 47
-1.20377 0.0240215 2.69743 22 30 40
-1.19808 -0.0239877 2.69776 123 124 127
-1.20935 0.00264864 2.69684 38 44 52
-1.19995 -0.0229303 2.6966 144 143 143
-1.20105 -0.0131897 2.69612 82 95 108
-1.20169 -0.0209856 2.69596 110 112 117
-1.20215 -0.0195122 2.69587 82 88 95
-1.22063 0.0273373 2.69472 56 63 72
-1.2045 0.0131908 2.6954 53 64 75
-1.193 -0.0189281 2.69571 33 36 38
-1.20173 -0.0119291 2.69472 68 81 94
-1.20285 -0.00354344 2.6945 73 85 97
-1.20195 0.018547 2.69422 158 167 167
-1.21166 -0.0302727 2.69358 161 161 162
-1.2023 -0.0184717 2.69384 45 53 63
-1.21766 0.0218442 2.69275 71 69 73
-1.21653 0.0242405 2.69257 21 24 26
-1.21038 -0.0283097 2.69275 40 50 61
-1.20868 -0.0325843 2.6926 90 87 86
-1.21004 -0.031052 2.69241 126 125 126
-1.21993 0.0275142 2.69154 70 85 100
-1.21928 0.0286465 2.6912 57 67 79
-1.19802 0.00466858 2.69198 58 66 74
-1.21018 -0.0281362 2.69166 42 49 54
-1.20977 -0.029483 2.69159 172 167 160
-1.20604 -0.0128482 2.69123 25 27 28
-1.18462 0.00885345 2.69118 28 25 24
-1.20633 -0.000154601 2.69017 22 25 28
-1.20823 0.0155938 2.68986 123 128 137
-1.20907 0.016277 2.68959 115 122 131
-1.19908 -0.0398876 2.6883 108 105 102
-1.20951 -0.0102985 2.68713 138 139 145
-1.20856 0.0113339 2.68666 65 76 87
-1.20423 -0.0351377 2.68589 192 186 182
-1.20335 -0.0357783 2.68563 196 201 202
-1.21519 0.0285835 2.68479 64 76 89
-1.20681 0.0187701 2.68457 39 46 52
-1.2025 -0.0364378 2.68476 190 192 192
-1.19787 -0.0400592 2.68329 161 159 158
-1.20716 0.0020147 2.68068 113 116 124
-1.20411 -0.0373734 2.68063 198 194 190
-1.20074 -0.0389426 2.68063 194 190 182
-1.21094 0.0246227 2.67875 173 171 177
-1.19782 -0.0389825 2.67813 177 175 173
-1.20123 0.00633903 2.67698 46 48 50
-1.20142 -0.00186998 2.67554 99 106 113
-1.20076 0.00725149 2.67394 63 72 81
-1.20075 0.0240119 2.67263 26 37 56
-1.19286 -0.0106404 2.67169 93 95 97
-1.19622 0.0205311 2.67014 170 166 166
-1.17286 0.0164867 2.66567 9 12 13
-1.19324 0.00763973 2.66631 23 25 29
-1.19385 0.0147929 2.66521 84 98 111
-1.18589 0.00118124 2.6641 153 150 150
-1.19752 0.0221156 2.66384 146 144 147
-1.19354 0.0160548 2.66349 69 78 90
-1.19586 0.00858667 2.66131 107 119 126
-1.1887 0.018938 2.65884 9 11 12
-1.18593 0.00510959 2.65684 209 203 198
-1.18901 0.0115565 2.65508 172 168 167
-1.18913 0.0280666 2.65241 68 80 93
-1.18133 0.0255481 2.64795 81 94 106
-1.18062 0.0238028 2.64746 42 48 55
-1.17998 0.0238088 2.64594 158 166 166
-1.18301 0.0245645 2.64601 62 73 86
-1.18164 0.0250307 2.64462 75 84 95
-1.25183 0.00457943 2.69896 77 91 104
-1.25261 0.0030639 2.69869 76 89 101
-1.25224 0.00516509 2.6984 48 56 64
-1.25256 0.00653306 2.69767 41 47 52
-1.25292 0.00961686 2.69571 85 100 112
-1.24741 -0.0210565 2.69595 91 98 106
-1.24936 -0.0184085 2.69421 144 143 143
-1.25001 -0.0102042 2.69382 82 95 108
-1.2506 -0.0155839 2.69362 82 88 95
-1.25111 0.00234534 2.68931 31 32 30
-1.25593 0.0175349 2.68848 135 132 134
-1.25505 0.0164046 2.68851 173 171 174
-1.25531 0.0135386 2.68709 161 160 166
-1.25468 -0.00127777 2.68543 45 51 55
-1.25445 0.00262199 2.68078 113 116 124
-1.2496 0.00635644 2.66777 119 116 117
-1.24786 0.0163381 2.6665 73 93 115
-1.24976 0.0121568 2.66597 65 74 86
-1.24764 0.0157067 2.66453 77 89 99
-1.27064 -0.00287564 2.70898 44 48 52
-1.27112 0.00261941 2.70768 30 35 44
-1.27211 0.000440816 2.70752 81 96 112
-1.27059 0.00617503 2.70718 64 77 95
-1.27153 0.00402123 2.70721 33 37 45
-1.27189 0.00339391 2.70693 43 48 56
-1.27153 0.00777691 2.70611 44 47 55
-1.27093 0.0178269 2.70585 94 108 121
-1.27074 0.0098937 2.70585 75 85 98
-1.27135 0.00982315 2.70538 84 94 107
-1.27239 -0.00819356 2.70514 49 54 55
-1.27175 0.01038 2.70494 47 51 58
-1.27363 0.00434092 2.70494 82 95 106
-1.27206 0.0184661 2.70434 53 48 49
-1.27138 0.0125733 2.7043 51 60 73
-1.27391 0.00517108 2.70432 39 45 51
-1.27255 0.0181676 2.704 47 43 48
-1.27165 0.0198282 2.70387 47 59 77
-1.27431 0.00421039 2.70387 48 56 68
-1.27287 0.0119411 2.703 42 46 55
-1.27029 -0.0195086 2.70261 78 84 90
-1.27062 -0.0186903 2.70239 97 103 111
-1.27449 0.0230621 2.70236 41 49 56
-1.27011 -0.0212159 2.70218 30 36 42
-1.26869 -0.0139966 2.70202 144 145 148
-1.2734 0.0197623 2.70197 14 21 32
-1.27097 -0.0179888 2.70189 146 144 144
-1.27086 -0.0195245 2.70182 28 33 38
-1.26869 -0.0148448 2.70165 141 140 143
-1.27123 -0.0170636 2.70163 121 123 125
-1.27435 0.00999242 2.70153 51 56 58
-1.27165 -0.016102 2.70125 51 57 64
-1.27038 -0.0144592 2.70101 38 43 47
-1.27631 0.0208801 2.70103 44 51 59
-1.27187 -0.0169153 2.70069 117 118 119
-1.27234 -0.00903632 2.70059 35 41 46
-1.27232 -0.0151619 2.70052 131 134 138
-1.27212 -0.00721406 2.7004 77 90 102
-1.27272 -0.0141908 2.70033 100 104 110
-1.27255 -0.00980888 2.69965 32 38 45
-1.27244 -0.00751333 2.69932 22 27 31
-1.27309 0.0156315 2.69884 158 167 167
-1.27364 -0.00133814 2.69823 37 44 50
-1.27382 -0.0262034 2.6983 145 139 127
-1.27403 -0.0029313 2.69797 79 93 106
-1.27331 -0.0108884 2.69735 76 93 111
-1.27461 -0.0259887 2.69727 131 126 121
-1.27846 0.0179311 2.69732 118 118 115
-1.27302 -0.0153883 2.69604 27 29 33
-1.27494 -0.00889118 2.69606 71 81 91
-1.27158 -0.0294372 2.6956 160 162 164
-1.2753 -0.0207142 2.6956 47 51 57
-1.27555 -0.0154251 2.69489 116 117 121
-1.27592 -0.00635117 2.69456 108 112 120
-1.27241 -0.0289625 2.69432 168 170 171
-1.27546 -0.0165615 2.69429 116 114 113
-1.27173 -0.0301982 2.69397 199 198 196
-1.27559 -0.0108054 2.69403 82 92 104
-1.27542 -0.009223 2.69322 22 25 26
-1.27479 -0.0254279 2.69319 178 169 158
-1.27582 -0.0105908 2.69269 36 42 50
-1.27576 -0.0192827 2.6926 141 139 137
-1.27517 -0.0234211 2.69255 33 39 42
-1.27403 -0.0262569 2.6922 203 207 208
-1.27268 -0.027896 2.69194 175 165 145
-1.27231 -0.0285412 2.69173 38 43 45
-1.27466 -0.0250734 2.69127 154 145 132
-1.27555 -0.016053 2.69075 72 83 93
-1.27243 -0.0289273 2.69043 180 181 182
-1.27422 -0.0252904 2.69049 17 18 18
-1.27599 -0.0192426 2.69063 53 62 68
-1.27433 -0.0280204 2.69007 167 158 137
-1.27514 -0.0162437 2.69009 19 22 22
-1.2742 -0.0256588 2.68868 125 126 124
-1.27516 -0.0128887 2.68852 126 125 126
-1.27443 0.0197022 2.68249 27 38 56
-1.2741 0.00271423 2.68193 66 78 90
-1.2706 0.0138461 2.67907 10 13 15
-1.27262 0.00827684 2.67824 52 53 55
-1.27313 0.00985398 2.67808 62 71 84
-1.272 0.0152626 2.67542 18 22 27
-1.27378 0.0114939 2.67557 67 76 88
-1.27334 0.018622 2.67426 24 29 32
-1.15535 0.0268325 2.64889 85 91 97
-1.15363 0.0263183 2.64902 79 83 88
-1.1563 0.0174167 2.65545 38 43 49
-1.15665 0.0223577 2.65803 12 14 16
-1.17068 -0.0398767 2.66957 47 49 45
-1.15646 -0.0078118 2.66621 182 176 173
-1.1655 -0.032539 2.67217 150 141 132
-1.16787 -0.0384394 2.67555 169 157 143
-1.16254 -0.0223381 2.67339 158 145 133
-1.16855 -0.0399958 2.67745 149 139 128
-1.1612 -0.0171639 2.67318 28 26 24
-1.14555 0.0182847 2.66332 129 121 120
-1.16164 -0.0208579 2.67388 147 137 130
-1.1694 -0.040607 2.67976 128 154 175
-1.14646 0.0166223 2.66487 105 97 93
-1.16343 -0.0213182 2.6775 18 19 20
-1.16458 -0.0353892 2.67845 88 85 83
-1.16497 -0.0349098 2.68034 27 27 28
-1.14669 0.00678947 2.67007 155 147 142
-1.14679 0.0064513 2.67105 105 98 96
-1.16381 -0.0256614 2.6825 37 39 39
-1.1642 -0.0282708 2.68304 109 103 100
-1.14377 0.0286275 2.6707 39 43 48
-1.1454 0.0119135 2.67494 49 52 55
-1.14557 0.00950923 2.6753 85 82 83
-1.14694 0.0173734 2.67659 68 74 79
-1.14608 0.00840409 2.67627 97 91 90
-1.14621 0.0110718 2.67656 84 86 90
-1.14799 0.01679 2.6796 24 23 21
-1.14959 0.00606651 2.6646 92 84 79
-1.16156 0.0248861 2.66483 74 82 89
-1.14856 0.0106642 2.61322 67 71 77
-1.19706 0.0267036 2.67032 80 92 104
-1.17846 0.00756468 2.63512 31 34 40
-1.26482 0.00551676 2.68325 63 76 92
-1.25743 0.0139103 2.66952 9 12 13
-1.27114 0.000423488 2.7075 81 96 112
-1.27061 0.00400555 2.70718 33 37 45
-1.27019 0.00963112 2.70571 27 30 37
-1.27138 0.0184772 2.70431 53 48 49
-1.27361 0.00420037 2.70384 48 56 68
-1.27393 0.0230439 2.70233 41 49 56
-1.27017 -0.0201853 2.70203 81 83 84
-1.27061 -0.0177988 2.70176 90 91 95
-1.27046 -0.0192095 2.70162 105 107 110
-1.27119 -0.0161191 2.70123 51 57 64
-1.27546 0.0205577 2.70112 152 150 155
-1.27147 -0.0169324 2.70066 117 118 119
-1.27192 -0.00904753 2.70056 35 41 46
-1.27233 -0.0148874 2.70015 112 114 118
-1.27251 -0.0137691 2.70007 88 92 99
-1.2722 -0.00983297 2.69963 32 38 45
-1.27708 0.0206545 2.69917 169 166 168
-1.27327 -0.0109077 2.69734 76 93 111
-1.27302 -0.0153888 2.69604 27 29 33
-1.27158 -0.0294173 2.69559 160 162 164
-1.27623 0.0109163 2.69343 73 84 96
-1.27265 -0.028496 2.69134 35 41 45
-1.27491 -0.0252138 2.69056 17 18 18
-1.27465 0.00983035 2.67831 62 71 84
-1.2702 -0.00482197 2.70955 131 135 141
-1.26471 0.0201195 2.70758 59 71 82
-1.2686 -0.0028787 2.70847 51 57 63
-1.26765 0.0035222 2.70793 51 57 66
-1.27148 -0.00611652 2.70888 159 157 158
-1.27178 -0.00523944 2.70858 26 32 31
-1.26574 0.02 2.70688 66 77 89
-1.26745 0.00665024 2.70727 158 167 167
-1.26596 0.0226854 2.70681 58 72 87
-1.27117 -0.00714459 2.7081 132 131 131
-1.26559 0.0214606 2.70649 82 99 114
-1.26866 0.00483648 2.7072 28 30 35
-1.26964 0.00144216 2.70745 26 30 36
-1.26935 0.00262215 2.70723 30 37 47
-1.27033 -0.0039769 2.70742 32 34 33
-1.26936 0.00454316 2.70697 30 32 39
-1.26697 0.0200641 2.70621 54 66 77
-1.2689 0.00618359 2.70674 68 81 99
-1.26688 0.0227567 2.70612 67 81 94
-1.27035 0.000406812 2.70707 82 97 113
-1.27243 -0.0050285 2.70757 56 68 80
-1.27065 -0.00110788 2.70708 52 55 58
-1.27245 -0.006939 2.7072 189 187 188
-1.26934 0.00689736 2.7063 32 34 42
-1.27022 0.00337385 2.7065 45 50 58
-1.26892 0.008326 2.70607 40 43 48
-1.26764 0.022747 2.70566 82 96 107
-1.27057 0.00233544 2.70651 44 50 59
-1.27062 0.00487154 2.70602 45 48 54
-1.26946 0.0178852 2.70546 93 108 120
-1.27288 -0.00597479 2.70639 147 145 142
-1.27288 -0.00499623 2.70635 28 31 33
-1.26953 0.00963674 2.70536 36 40 47
-1.26932 0.0168759 2.70491 65 84 107
-1.27142 0.00448469 2.70548 45 53 65
-1.2723 -0.00705824 2.70576 132 128 119
-1.27126 0.0061221 2.70515 87 98 109
-1.26974 0.0113602 2.70464 55 59 61
-1.27289 -0.00617379 2.70548 94 99 105
-1.27034 0.0104037 2.70456 46 48 54
-1.27241 0.00171447 2.70491 28 33 39
-1.27212 0.00391965 2.7048 39 42 42
-1.27161 0.00729094 2.70459 49 51 49
-1.27005 0.0125862 2.70394 50 58 72
-1.27083 0.0184985 2.704 49 43 44
-1.27241 -0.00499154 2.70451 39 45 49
-1.27312 -0.00396336 2.70459 138 139 142
-1.27238 0.00467323 2.70428 41 49 59
-1.27264 0.00342098 2.70429 34 39 42
-1.27043 0.0198597 2.70354 48 61 80
-1.27318 -0.00610671 2.70425 73 83 94
-1.27291 0.00223985 2.70411 29 34 43
-1.27105 0.0231584 2.7035 84 94 102
-1.27251 0.0063703 2.70389 83 96 108
-1.27168 -0.00794466 2.70343 134 137 143
-1.27219 -0.00739796 2.70348 33 41 49
-1.26728 -0.014015 2.70203 70 72 76
-1.27305 0.00418998 2.70353 48 56 68
-1.27305 0.00530922 2.70337 29 35 44
-1.27187 0.0183405 2.70285 89 106 121
-1.26695 -0.016387 2.70158 131 127 126
-1.26788 -0.0140048 2.7018 149 150 152
-1.26924 -0.0202773 2.7022 124 124 124
-1.27178 0.011943 2.7027 41 45 53
-1.2696 -0.0192583 2.70216 111 116 122
-1.2697 -0.0176839 2.70206 47 55 63
-1.27319 0.00646174 2.70279 35 39 42
-1.274 -0.00344673 2.70283 71 79 90
-1.27406 0.00110998 2.70274 57 63 74
-1.27319 0.00809048 2.70244 50 57 61
-1.27276 0.00957365 2.70229 50 57 59
-1.27027 -0.0165875 2.70159 38 43 48
-1.27405 -0.000701414 2.70257 135 137 140
-1.27009 -0.018641 2.70148 121 121 125
-1.27 -0.0200966 2.70142 60 64 66
-1.26973 -0.0226653 2.70125 72 76 78
-1.27347 0.0230623 2.70207 40 47 52
-1.27227 0.0197675 2.70165 17 23 32
-1.2699 -0.0214832 2.70113 61 67 72
-1.2738 -0.00215147 2.70211 148 152 157
-1.27077 -0.0097523 2.70124 45 53 60
-1.2705 -0.0177957 2.70112 94 96 98
-1.27082 -0.0161414 2.70102 52 58 64
-1.27414 0.0006539 2.70181 121 121 125
-1.27348 0.00924769 2.70157 85 99 111
-1.26991 -0.0237137 2.70055 84 87 88
-1.27384 0.00821017 2.70139 48 55 61
-1.27023 -0.0206931 2.70048 95 98 102
-1.27059 -0.0190272 2.70045 121 120 120
-1.27114 -0.0169623 2.70048 117 118 119
-1.27477 0.00297661 2.7014 66 76 85
-1.27158 -0.00906407 2.70037 34 39 44
-1.27169 -0.00721851 2.70027 76 90 101
-1.27502 0.0207537 2.70098 46 53 60
-1.27204 -0.014226 2.70013 112 114 119
-1.27482 -0.0213454 2.70093 71 79 88
-1.26911 -0.0272821 2.6991 155 153 151
-1.27484 0.00330452 2.70045 45 53 62
-1.27168 -0.00560034 2.69947 22 27 30
-1.27192 -0.00984771 2.69947 35 42 49
-1.27232 -0.00843924 2.69922 64 76 88
-1.27262 0.0167137 2.69886 34 42 50
-1.27254 -0.00546352 2.69889 30 34 38
-1.27589 -0.0221223 2.69965 69 77 84
-1.27708 0.0209128 2.69975 65 69 76
-1.27619 -0.0231909 2.69962 190 189 190
-1.27321 -0.00857066 2.69842 20 22 23
-1.27339 -0.00602551 2.6982 86 100 113
-1.27325 -0.00362311 2.69807 58 68 78
-1.27337 -0.0262285 2.69816 145 137 121
-1.2759 -0.0200438 2.69884 76 87 98
-1.27623 -0.0222293 2.69876 122 123 129
-1.27418 -0.00293682 2.69801 78 92 106
-1.27626 -0.0232924 2.69868 181 181 182
-1.27392 -0.00841788 2.69761 68 80 90
-1.27324 -0.0109007 2.69732 77 94 112
-1.27384 -0.006637 2.69744 91 107 119
-1.27562 -0.0169881 2.69779 78 88 97
-1.27771 0.0186088 2.69825 154 155 159
-1.27419 -0.00921892 2.69722 73 89 103
-1.27744 0.019765 2.69809 19 22 27
-1.27429 -0.0260354 2.69717 126 120 111
-1.27221 0.00438386 2.69616 68 74 80
-1.27329 -0.0131899 2.69654 65 76 87
-1.27423 -0.00515262 2.69676 20 22 24
-1.27941 0.0225157 2.69822 85 88 95
-1.2764 -0.0215561 2.69748 99 108 117
-1.27943 0.0212822 2.69821 114 116 120
-1.27484 -0.0246188 2.69684 161 159 160
-1.27973 0.0239137 2.69806 49 55 64
-1.27597 -0.0228541 2.69709 132 130 129
-1.27302 -0.015378 2.69604 26 28 32
-1.27168 -0.0293893 2.69565 163 166 169
-1.2756 -0.0189628 2.6968 36 41 43
-1.27446 -0.00877566 2.69635 19 20 22
-1.27618 0.0165056 2.69653 37 46 54
-1.27525 0.0149165 2.69623 48 61 78
-1.27887 0.0184627 2.69715 67 66 68
-1.27479 -0.0260529 2.69605 84 83 86
-1.27852 0.0202847 2.69699 23 25 28
-1.27211 -0.028803 2.69514 157 158 158
-1.27174 0.00625136 2.69484 61 70 80
-1.27112 -0.0162741 2.69457 23 27 29
-1.27551 -0.022113 2.69592 49 57 65
-1.27514 -0.0235318 2.69575 163 153 144
-1.27503 -0.0246458 2.6957 17 20 20
-1.27247 -0.0279423 2.69485 128 122 116
-1.27929 0.0191462 2.69662 30 36 43
-1.27512 0.00141851 2.69535 63 74 87
-1.27986 0.0239705 2.6967 74 87 99
-1.27586 0.0145944 2.69544 135 137 144
-1.27551 -0.0198539 2.69543 108 110 115
-1.27558 -0.0185652 2.69544 85 89 94
-1.27987 0.0214195 2.69652 61 72 85
-1.27573 -0.0137777 2.69534 97 99 104
-1.27548 -0.00624415 2.69522 87 94 103
-1.27263 -0.0289113 2.69439 166 168 169
-1.27578 0.0129883 2.6952 142 143 146
-1.27394 0.00340543 2.69459 83 92 99
-1.27216 -0.0298576 2.69415 144 145 147
-1.27521 -0.0253754 2.69507 144 137 134
-1.27624 0.0154382 2.69521 175 173 176
-1.27914 0.020416 2.69605 20 25 32
-1.27431 -0.0267848 2.69467 161 152 139
-1.27568 -0.00974994 2.69493 77 86 97
-1.27559 -0.0154235 2.6949 120 120 124
-1.27566 -1.51154e-05 2.69483 86 100 113
-1.27683 0.0164768 2.69512 137 134 136
-1.27551 -0.0231376 2.69485 97 94 82
-1.27541 -0.024092 2.69462 151 142 139
-1.27905 0.0176809 2.69554 128 125 115
-1.2764 0.0133665 2.69461 134 138 146
-1.27972 0.0186683 2.69565 140 140 145
-1.27602 -0.0145913 2.69459 41 46 51
-1.27979 0.0214679 2.69565 107 115 126
-1.27526 -0.0252501 2.69406 128 121 121
-1.27603 -0.0103631 2.69422 109 117 125
-1.27586 -0.00936945 2.69412 31 34 37
-1.27566 0.000489643 2.69393 86 101 116
-1.27612 -0.0157522 2.69412 108 112 115
-1.27554 -0.0178172 2.69391 96 96 94
-1.27667 0.0145636 2.6941 58 71 87
-1.2746 0.00272265 2.6934 66 69 68
-1.27634 -0.00579839 2.69396 23 25 25
-1.27292 -0.0296163 2.69293 59 63 63
-1.2762 -0.00715401 2.69388 165 164 166
-1.27556 -0.0231206 2.69367 56 62 68
-1.27564 -0.0186276 2.69347 111 108 106
-1.27541 0.00172038 2.69325 80 93 106
-1.27636 0.0108991 2.69351 64 74 86
-1.27624 -0.0168468 2.69353 58 66 71
-1.27943 0.0197687 2.69433 33 36 42
-1.27994 0.0184639 2.6945 184 182 184
-1.27602 -0.00968351 2.69309 24 26 29
-1.27332 -0.0277987 2.69215 177 167 146
-1.27626 -0.00809766 2.69303 49 56 68
-1.27965 0.0207371 2.694 152 148 149
-1.27603 -0.0146824 2.69294 24 29 34
-1.27701 0.0132313 2.69305 161 164 169
-1.27452 -0.026193 2.69236 200 205 205
-1.27643 -0.0177105 2.69295 74 78 83
-1.27564 -0.0234007 2.69271 31 37 40
-1.27614 -0.000122021 2.69276 30 33 33
-1.27624 -0.0105618 2.69283 33 39 47
-1.27675 -0.00634686 2.69298 57 66 76
-1.27604 -0.020557 2.69279 65 66 65
-1.27621 -0.0192461 2.69275 132 130 126
-1.2731 -0.0287368 2.69163 145 142 134
-1.27612 -0.0216612 2.69253 120 121 123
-1.27977 0.0185406 2.69355 87 84 90
-1.2762 -0.0116916 2.69242 52 59 72
-1.27679 -0.00712166 2.69253 67 78 89
-1.27715 0.0141834 2.69255 63 73 84
-1.27286 -0.0295711 2.69122 57 61 56
-1.27632 -0.0150688 2.69216 94 108 118
-1.27526 -0.0251151 2.69178 170 164 155
-1.27654 -0.00862673 2.69211 78 87 97
-1.27957 0.0237326 2.69294 62 74 87
-1.27659 -0.0202502 2.69204 59 68 78
-1.27676 -0.010343 2.69197 135 136 141
-1.27634 -0.022743 2.69181 181 179 177
-1.2732 -0.0288191 2.69069 178 179 180
-1.27666 -0.0191305 2.69177 54 65 76
-1.2772 0.0135315 2.69182 79 87 95
-1.27642 -0.0160008 2.69165 103 115 122
-1.2766 -0.00585993 2.69164 54 62 71
-1.27512 -0.0264963 2.69121 160 154 146
-1.27708 -0.00659191 2.6917 56 65 76
-1.27566 -0.0257405 2.69104 115 118 122
-1.27652 -0.00818032 2.6912 160 156 158
-1.27955 0.0221046 2.69208 95 100 109
-1.275 -0.0273458 2.69072 50 56 60
-1.27677 -0.00994672 2.69121 127 129 136
-1.2759 -0.0228318 2.69096 156 152 150
-1.27953 0.0208006 2.69201 86 90 97
-1.27715 -0.00782015 2.69121 154 152 156
-1.27672 -0.0189832 2.69091 112 120 126
-1.27671 -0.0210669 2.69089 145 143 143
-1.27682 -0.0112117 2.69075 73 79 86
-1.27607 -0.016223 2.6904 18 20 20
-1.27655 -0.0217475 2.69053 168 164 162
-1.27301 -0.0296785 2.68935 202 201 197
-1.27648 -0.0174992 2.69047 80 89 96
-1.27708 0.00687929 2.69052 126 134 146
-1.27677 -0.00969668 2.69039 103 111 120
-1.2769 -0.00770874 2.69041 41 44 47
-1.27675 -0.00870212 2.69036 173 170 170
-1.27675 -0.011922 2.6903 129 130 131
-1.27667 -0.0202742 2.69017 59 69 78
-1.27655 -0.0189159 2.68987 24 27 31
-1.2761 -0.026036 2.68972 187 183 177
-1.27646 -0.00651735 2.68974 66 75 84
-1.27648 -0.0165473 2.68955 18 21 23
-1.27651 -0.0218047 2.6895 168 163 158
-1.27647 -0.01208 2.68939 106 118 124
-1.27941 0.0234374 2.69026 40 46 58
-1.2794 0.0217649 2.69025 86 94 107
-1.27586 -0.0240213 2.6891 30 33 34
-1.27731 0.00598075 2.68942 63 76 90
-1.27645 -0.0180479 2.68913 33 39 44
-1.27668 -0.0112012 2.68914 63 68 74
-1.27651 -0.0131698 2.68888 95 97 100
-1.27614 -0.0229003 2.6887 156 154 153
-1.27733 0.00509507 2.68894 63 75 87
-1.27598 -0.0271035 2.6885 165 163 163
-1.27648 -0.0144696 2.68852 122 126 129
-1.2763 -0.0197512 2.68842 43 47 52
-1.27583 -0.0254209 2.68814 79 85 90
-1.2763 -0.0186613 2.68823 110 113 118
-1.27538 -0.0233054 2.68779 53 59 64
-1.27669 -0.0126182 2.68809 161 159 159
-1.27731 0.00398606 2.68812 130 138 148
-1.27645 -0.0213379 2.68791 171 168 166
-1.2792 0.0208265 2.68868 36 44 58
-1.27576 -0.00591893 2.68739 60 66 71
-1.27507 -0.024784 2.68717 79 75 64
-1.27686 0.00185671 2.68767 162 162 165
-1.27529 -0.0236552 2.6871 146 143 139
-1.27656 -0.0143535 2.68738 132 134 138
-1.27635 -0.0203468 2.68719 113 115 118
-1.27622 -0.0164656 2.68705 146 146 150
-1.27567 -0.0225092 2.68685 174 171 169
-1.27617 -0.000491032 2.68674 48 57 69
-1.27589 -0.0206921 2.68647 41 49 57
-1.27513 -0.0244051 2.68618 135 133 134
-1.27285 0.0177493 2.6852 67 85 102
-1.27667 0.00277886 2.68659 95 108 121
-1.27537 -0.0230594 2.68608 101 103 107
-1.2791 0.0209264 2.68667 121 128 133
-1.27654 0.00234558 2.68581 25 30 34
-1.2765 0.00136293 2.68558 82 86 95
-1.27506 -0.0224055 2.68502 80 91 100
-1.2761 0.0049569 2.68523 78 88 97
-1.27903 0.0210207 2.68578 80 88 100
-1.27632 0.0070007 2.68458 87 98 109
-1.27888 0.0207694 2.68467 77 83 93
-1.27084 -0.0100049 2.68174 148 170 186
-1.27348 -0.00658517 2.68241 177 173 170
-1.27721 0.00381533 2.68368 57 65 76
-1.2744 0.000131602 2.68248 152 151 154
-1.2789 0.0231753 2.68397 60 73 85
-1.27427 0.0184937 2.68226 15 19 22
-1.27684 0.00313171 2.68323 169 164 162
-1.27884 0.0219316 2.68385 88 100 113
-1.2742 -0.00266226 2.68214 57 67 77
-1.27337 -0.0065997 2.68168 106 100 96
-1.2788 0.0206837 2.68356 91 96 108
-1.27273 -0.00794408 2.68128 151 151 153
-1.27421 -0.00412434 2.68177 103 97 94
-1.27551 0.018056 2.68216 74 79 85
-1.27396 -0.00521757 2.6816 82 75 76
-1.27572 0.0171991 2.68175 75 76 78
-1.27861 0.0230534 2.68244 61 72 87
-1.27619 0.0179462 2.68134 36 43 49
-1.27857 0.0202591 2.68204 73 81 94
-1.27365 -0.00254457 2.68025 62 68 78
-1.2758 0.0164907 2.68074 185 184 185
-1.27858 0.0220568 2.68175 93 102 115
-1.27642 0.019036 2.6809 18 22 26
-1.27337 -0.00231071 2.67959 55 63 77
-1.27855 0.02031 2.68121 48 55 68
-1.27687 0.0172581 2.68033 50 53 57
-1.27298 -0.00262209 2.67881 144 143 145
-1.27347 0.00499654 2.67887 72 86 98
-1.27359 0.00344459 2.67886 76 85 92
-1.27344 0.002546 2.6787 69 79 91
-1.27527 0.00822935 2.67927 59 58 60
-1.27274 0.000165709 2.67832 48 53 59
-1.27835 0.0203918 2.68038 57 69 84
-1.27309 0.00311082 2.67815 124 127 133
-1.27582 0.00979564 2.67912 67 76 89
-1.27279 0.00198922 2.67791 71 80 89
-1.27733 0.0176348 2.67943 153 151 154
-1.27577 0.00640986 2.67883 69 68 68
-1.27273 -0.000522799 2.67767 132 131 133
-1.2757 0.0124771 2.67848 77 90 105
-1.27711 0.0187567 2.679 76 81 89
-1.27677 0.0170086 2.67863 60 69 79
-1.27649 0.0164708 2.67808 44 57 71
-1.27826 0.022558 2.6786 40 49 62
-1.27687 0.00795318 2.67799 44 51 59
-1.27544 0.0151456 2.67737 77 96 117
-1.27278 0.00326667 2.67634 57 66 76
-1.27735 0.0180588 2.67801 116 119 126
-1.27277 0.00136738 2.67617 87 94 103
-1.272 -0.00126429 2.67563 156 173 184
-1.27699 0.00654717 2.67748 116 116 117
-1.27512 0.0151157 2.67666 25 31 37
-1.27729 0.0084696 2.67737 85 89 96
-1.27575 0.0139972 2.67619 57 71 88
-1.2775 0.00711977 2.67667 127 129 136
-1.27668 0.00782242 2.67626 47 54 62
-1.27801 0.0200399 2.67643 49 60 75
-1.27735 0.0193176 2.67613 28 40 60
-1.27793 0.0226409 2.67626 57 69 84
-1.27695 0.0184654 2.67572 13 18 23
-1.27746 0.00695384 2.67589 71 79 90
-1.27745 0.00786238 2.67574 106 118 125
-1.27743 0.00923767 2.67555 78 86 97
-1.27778 0.0225608 2.67518 53 65 80
-1.27753 0.00838284 2.67497 177 173 172
-1.27723 0.00637363 2.67465 87 92 100
-1.27721 0.00782221 2.67443 163 158 153
-1.27778 0.0215365 2.67458 112 123 130
-1.27719 0.0218915 2.67418 54 66 82
-1.27701 0.00754853 2.67379 50 56 64
-1.27638 0.00639982 2.67282 84 79 74
-1.27677 0.00866116 2.67292 85 88 91
-1.27752 0.0196579 2.67276 63 74 89
-1.27737 0.019423 2.67191 133 131 136
-1.27474 0.0159867 2.66977 202 200 199
-1.27768 0.0179527 2.67059 85 94 105
-1.27712 0.0191155 2.66995 28 35 46
-1.27715 0.0221576 2.66954 63 75 90
-1.27614 0.0187481 2.6679 39 43 45
-1.27627 0.0188439 2.66631 193 190 186
-1.27705 0.0216178 2.6663 75 87 98
-1.27636 0.021766 2.66578 82 95 108
-1.27642 0.0205364 2.66561 56 65 76
-1.20179 0.0257788 2.67536 158 166 166
-1.20101 0.0282358 2.67439 64 72 81
-1.17846 0.00757619 2.63552 31 34 40
-1.23596 0.0138618 2.66683 159 158 162
-1.24727 0.00193692 2.68768 30 36 43
-1.25556 0.0207814 2.67908 29 34 40
-1.24905 -0.00754108 2.67718 96 100 108
-1.2657 -0.00401994 2.6983 59 67 75
-1.26495 0.00353549 2.69766 40 44 46
-1.26884 -0.0229818 2.69247 39 47 56
-1.26825 -0.0210801 2.69227 75 86 97
-1.27112 0.0191451 2.69173 142 144 148
-1.2736 0.0220623 2.68906 103 112 122
-1.26711 0.015059 2.6884 133 136 142
-1.26651 -0.0104057 2.68782 78 87 97
-1.26787 0.0137018 2.68716 158 160 165
-1.26723 -0.00175398 2.68606 46 50 52
-1.26691 -0.0206565 2.68502 161 157 152
-1.26694 -0.00924734 2.68473 74 84 94
-1.26678 0.00553287 2.68323 63 76 92
-1.2741 0.00049194 2.70758 81 96 112
-1.2769 0.00713965 2.70342 38 41 42
-1.27189 -0.0194604 2.70187 28 33 38
-1.27218 -0.018363 2.70162 89 88 89
-1.27401 -0.00894483 2.70068 35 41 46
-1.27477 -0.0136294 2.7002 88 92 99
-1.2744 -0.00936681 2.69967 28 35 43
-1.27582 -0.00351918 2.69834 52 61 70
-1.28534 0.0235258 2.69859 48 55 64
-1.28464 0.0186556 2.69589 52 57 65
-1.279 0.0108708 2.69368 73 84 96
-1.27886 -0.000652995 2.69271 48 53 58
-1.27322 0.0098411 2.67809 62 71 84
-1.26766 0.00324257 2.67477 56 64 73
-1.27413 0.00894831 2.67413 159 161 165
-1.26494 0.022713 2.70769 77 92 107
-1.27175 0.0112191 2.70618 41 48 63
-1.26708 -0.01643 2.70162 131 127 126
-1.27266 -0.0201699 2.70196 76 75 70
-1.27299 -0.0188447 2.70197 56 58 59
-1.28317 0.0194652 2.70374 29 39 52
-1.27003 -0.0272382 2.69937 155 153 151
-1.28141 -0.0193914 2.70122 17 20 21
-1.27771 -0.00464256 2.69875 30 34 36
-1.2794 -0.0245946 2.69819 44 53 60
-1.27315 -0.0292238 2.69608 165 166 166
-1.28935 0.0211691 2.70079 102 114 129
-1.28003 -0.00518793 2.69734 25 29 33
-1.27395 -0.0285094 2.69538 98 96 88
-1.28026 -0.0215452 2.69684 48 56 64
-1.27902 -0.0241516 2.69499 148 141 137
-1.2744 -0.0294001 2.69341 59 63 63
-1.28108 -0.015142 2.69483 37 42 45
-1.28112 -0.0045311 2.69412 44 50 54
-1.2742 -0.0280204 2.69184 181 178 175
-1.28088 -0.0175301 2.69363 65 74 83
-1.27731 -0.0275758 2.69108 165 157 138
-1.27766 -0.0265303 2.69048 14 15 15
-1.27926 -0.021983 2.69079 166 164 163
-1.27732 -0.0252447 2.68974 46 53 59
-1.27904 -0.0132466 2.68918 148 148 148
-1.27879 -0.0180363 2.6884 138 141 145
-1.27829 -0.0148505 2.68774 135 137 142
-1.2757 -0.0229545 2.68619 101 103 107
-1.28307 0.0229046 2.68802 41 48 62
-1.26841 -0.00783873 2.67946 39 44 49
-1.27329 0.00983395 2.67814 67 76 89
-1.27303 0.00642313 2.67776 69 68 68
-1.27275 0.0125448 2.67733 77 90 105
-1.27376 0.00625281 2.67723 112 108 107
-1.27532 0.0177942 2.67768 134 133 138
-1.27457 0.00796908 2.67708 44 51 59
-1.26613 0.00322898 2.67372 57 66 76
-1.27487 0.00723646 2.67642 56 62 69
-1.27495 0.00848956 2.67644 85 89 96
-1.27674 0.020052 2.67701 55 65 79
-1.27389 0.0114274 2.67561 65 75 86
-1.27121 0.0147234 2.674 78 90 100
-1.27443 0.00696616 2.67466 71 79 90
-1.2742 0.00927429 2.67424 78 86 97
-1.27318 0.0220967 2.67253 54 66 82
-1.27386 0.0198108 2.67257 108 114 124
-1.27376 0.0225569 2.67205 55 67 82
-1.2721 0.0196693 2.66969 133 131 136
-1.26784 0.019144 2.66427 39 43 45
-1.26674 0.0193277 2.66207 193 190 186
-1.26652 0.0204881 2.66094 157 166 166
-1.47474 0.005072 2.81693 78 91 103
-1.47595 0.00499484 2.81755 51 63 77
-1.47677 0.00487456 2.81798 157 171 177
-1.47604 0.00497126 2.8176 63 74 85
-1.47685 0.00486875 2.81802 60 70 83
-1.47702 0.00486581 2.81811 133 135 139
-1.47684 0.00487489 2.81801 29 35 45
-1.47682 0.00487877 2.818 22 26 32
-1.47644 0.00494592 2.8178 50 63 75
-1.47663 0.00491515 2.8179 158 166 166
-1.47681 0.00488065 2.818 50 60 74
-1.4768 0.0048847 2.81799 20 21 26
-1.47693 0.00486495 2.81806 38 41 42
-1.47688 0.00488122 2.81803 36 38 45
-1.47703 0.00486544 2.81811 98 95 92
-1.47705 0.00486721 2.81812 117 125 134
-1.47677 0.00489364 2.81797 30 33 39
-1.47698 0.00487445 2.81808 87 101 114
-1.47678 0.00492545 2.81797 95 106 113
-1.47697 0.00487911 2.81808 85 97 110
-1.47682 0.00489434 2.818 25 31 44
-1.47683 0.00492041 2.818 97 108 114
-1.47679 0.00491763 2.81798 47 56 71
-1.47698 0.00487716 2.81808 53 60 69
-1.47665 0.0049137 2.8179 158 167 167
-1.47694 0.00488482 2.81806 59 62 65
-1.47682 0.0049149 2.818 51 61 74
-1.47395 0.00457839 2.8164 61 64 69
-1.47171 0.00434936 2.81516 70 72 76
-1.46238 0.00337177 2.80998 138 135 133
-1.47573 0.00474664 2.81739 114 118 124
-1.47554 0.00472134 2.81728 149 149 151
-1.47691 0.00489423 2.81804 57 63 67
-1.47701 0.00486418 2.8181 180 181 183
-1.47651 0.00478364 2.81781 122 120 116
-1.47659 0.00479799 2.81786 107 112 118
-1.47692 0.00485626 2.81804 15 18 19
-1.47695 0.00491193 2.81806 81 95 106
-1.47661 0.00480508 2.81787 49 57 65
-1.46536 0.00300843 2.81154 155 149 143
-1.47594 0.00468317 2.81749 132 127 117
-1.47668 0.0048142 2.81791 108 110 114
-1.4765 0.00477395 2.8178 75 79 81
-1.47654 0.00478353 2.81783 56 62 67
-1.4757 0.00464287 2.81735 20 22 23
-1.4767 0.00481909 2.81792 112 113 116
-1.47699 0.00490854 2.81808 56 66 72
-1.47675 0.0048414 2.81794 40 46 52
-1.4767 0.00482172 2.81792 98 101 108
-1.4766 0.00479709 2.81786 21 25 27
-1.47574 0.00464151 2.81737 19 21 21
-1.47665 0.0048085 2.81789 123 124 126
-1.47647 0.00476719 2.81779 110 110 106
-1.47698 0.00490238 2.81807 75 89 101
-1.47663 0.00480323 2.81788 125 125 124
-1.47646 0.00477238 2.81778 66 70 71
-1.47678 0.00482954 2.81796 130 135 141
-1.47678 0.00483174 2.81796 26 30 33
-1.47604 0.00469672 2.81754 42 47 47
-1.47674 0.00482088 2.81794 115 116 118
-1.4764 0.00475268 2.81774 90 93 84
-1.47526 0.00456513 2.81709 155 154 152
-1.4768 0.00484682 2.81797 37 43 49
-1.47683 0.00483701 2.81799 103 107 113
-1.47703 0.0048797 2.8181 40 43 46
-1.47678 0.00484345 2.81796 38 45 54
-1.47701 0.00484186 2.81809 20 23 27
-1.47706 0.00489976 2.81812 43 49 58
-1.47683 0.00485679 2.81798 30 34 39
-1.47704 0.00484436 2.8181 172 168 165
-1.47686 0.00486957 2.818 74 87 101
-1.47675 0.00482448 2.81793 20 23 25
-1.46905 0.00355184 2.81343 19 22 23
-1.47686 0.00485703 2.818 34 39 45
-1.47687 0.00486757 2.818 38 45 51
-1.47686 0.00481282 2.818 145 138 123
-1.4749 0.00447487 2.81684 192 191 191
-1.47466 0.00444707 2.8167 24 27 28
-1.47694 0.00482894 2.81805 192 188 187
-1.47592 0.004648 2.81743 178 177 177
-1.47629 0.00471948 2.81765 156 152 148
-1.47689 0.00485183 2.81801 50 58 65
-1.47668 0.00481938 2.81789 26 28 32
-1.47624 0.00488779 2.81762 62 70 80
-1.47618 0.00469414 2.81759 178 178 178
-1.47598 0.00465708 2.81746 145 146 148
-1.47699 0.00489695 2.81807 156 159 166
-1.47632 0.00471948 2.81767 167 169 171
-1.47693 0.0048468 2.81803 66 73 84
-1.4769 0.00482468 2.81802 168 158 146
-1.47689 0.00485056 2.81801 38 43 47
-1.47688 0.0048178 2.818 33 38 43
-1.4769 0.004834 2.81802 67 73 82
-1.47689 0.00482402 2.81801 99 96 86
-1.4758 0.00462597 2.81734 186 181 173
-1.47689 0.004826 2.818 73 85 94
-1.47608 0.00468176 2.81751 33 36 35
-1.47692 0.00484452 2.81802 41 47 55
-1.47689 0.00484889 2.81801 83 94 104
-1.47686 0.0048311 2.81799 94 94 94
-1.47691 0.00486182 2.81802 79 90 100
-1.47574 0.00462022 2.81729 157 145 112
-1.47684 0.00481723 2.81797 57 63 69
-1.4769 0.00483741 2.81801 130 130 131
-1.47685 0.00482807 2.81798 103 101 97
-1.47692 0.00485946 2.81802 31 35 40
-1.47679 0.00481144 2.81794 29 34 38
-1.4755 0.00458944 2.81714 181 179 176
-1.47631 0.00472505 2.81764 128 122 123
-1.47692 0.00486848 2.81802 46 49 51
-1.47686 0.00487087 2.81798 37 42 44
-1.47685 0.00482366 2.81798 54 56 55
-1.47676 0.00480366 2.81792 101 107 114
-1.47686 0.00483821 2.81798 80 90 97
-1.47686 0.00482738 2.81798 131 130 127
-1.47684 0.00481984 2.81797 121 122 124
-1.47482 0.00447063 2.8167 181 181 182
-1.47662 0.00477735 2.81783 111 110 107
-1.47667 0.00478723 2.81786 165 158 147
-1.4768 0.00480995 2.81794 162 164 166
-1.47647 0.00474991 2.81774 75 77 80
-1.47683 0.00483289 2.81796 47 54 59
-1.47686 0.00482509 2.81798 60 69 79
-1.47685 0.00482641 2.81797 53 64 75
-1.47641 0.00473738 2.8177 142 134 120
-1.47666 0.00478319 2.81785 113 116 121
-1.47681 0.00481773 2.81795 69 78 87
-1.47688 0.00485637 2.81799 51 59 68
-1.47683 0.00484464 2.81796 121 125 131
-1.47683 0.00488191 2.81796 68 83 99
-1.4767 0.00481307 2.81787 21 25 28
-1.47675 0.00481217 2.81791 60 70 79
-1.47672 0.00483943 2.81789 163 163 165
-1.47663 0.00480914 2.81783 63 73 80
-1.4767 0.00481019 2.81788 22 26 29
-1.47667 0.00482741 2.81785 100 111 118
-1.47706 0.00489773 2.8181 12 13 15
-1.47661 0.00480223 2.81781 36 42 47
-1.47653 0.0048043 2.81776 38 43 46
-1.47668 0.00483091 2.81786 67 72 79
-1.47618 0.00469872 2.81753 193 190 185
-1.47647 0.00477963 2.81772 47 52 57
-1.47617 0.00471038 2.81752 78 84 88
-1.47607 0.00481481 2.81746 59 64 69
-1.47645 0.00478 2.8177 157 155 153
-1.47637 0.00476025 2.81765 151 149 147
-1.4765 0.00481099 2.81774 141 142 145
-1.45475 0.00166656 2.80352 171 168 167
-1.47562 0.00466719 2.81716 41 50 58
-1.47172 0.00410974 2.8146 112 118 123
-1.47578 0.00473333 2.81726 166 164 163
-1.47539 0.00468651 2.817 153 156 158
-1.47604 0.00486464 2.81743 29 35 41
-1.47581 0.0048545 2.81727 75 80 90
-1.47502 0.00488144 2.81675 79 89 97
-1.47459 0.00490341 2.81646 74 84 94
-1.47676 0.00492994 2.81789 31 38 49
-1.47398 0.00484681 2.81602 174 167 166
-1.47631 0.00495773 2.81758 36 45 59
-1.47544 0.00504368 2.81698 48 57 72
-1.47097 0.00539194 2.81387 102 111 124
-1.24397 0.00189379 2.68848 30 36 43
-1.24477 -0.00777679 2.67807 96 100 108
-1.24453 -0.0119164 2.67742 43 47 52
-1.24603 0.0144672 2.67691 162 164 169
-1.24629 0.0163069 2.67635 56 67 78
-1.24498 -0.019132 2.67585 135 135 136
-1.24532 -0.00812027 2.67504 102 105 112
-1.24448 -0.0237898 2.67437 59 68 77
-1.24152 -0.0235288 2.66997 42 46 51
-1.23907 0.0052103 2.66576 96 108 118
-1.23898 0.00682403 2.66535 76 85 95
-1.2352 0.00869402 2.65685 98 100 108
-1.23459 0.0107836 2.65327 49 55 65
-1.26202 -0.00417575 2.69855 59 67 75
-1.25998 0.0046539 2.69842 77 91 104
-1.26117 0.00211449 2.69805 30 35 42
-1.26102 0.00955693 2.69527 85 100 112
-1.25341 -0.0206021 2.69495 120 121 124
-1.26423 -0.021492 2.69245 75 86 97
-1.25957 -0.010246 2.69 38 44 51
-1.26169 -0.00691174 2.68826 94 98 106
-1.26134 -0.010717 2.68796 78 87 97
-1.25341 -0.0319838 2.68806 121 120 114
-1.26298 0.0138464 2.68727 158 160 165
-1.26323 0.0156125 2.68675 55 66 77
-1.26164 -0.0172782 2.68675 44 50 54
-1.26208 -0.00741223 2.68659 70 77 83
-1.26066 -0.0101537 2.68618 26 28 29
-1.26157 -0.0188112 2.68591 138 140 142
-1.26181 0.0104212 2.68573 65 76 87
-1.2613 -0.0211739 2.6851 161 157 152
-1.2622 -0.00741651 2.68475 116 120 128
-1.2611 -0.0231262 2.68457 77 81 86
-1.25859 -0.0280527 2.68346 119 122 126
-1.25665 0.00125283 2.67694 136 137 145
-1.25562 0.00543188 2.67621 101 115 126
-1.25144 0.00847497 2.66768 97 101 111
-1.25053 0.00969953 2.66402 146 149 151
-1.2691 0.000379718 2.70744 81 96 112
-1.27398 -0.00579909 2.70707 70 77 85
-1.27149 0.00394962 2.70512 40 44 46
-1.27339 -0.00372027 2.70488 62 69 77
-1.27254 0.00535963 2.70363 29 35 45
-1.27217 0.00718593 2.7032 38 41 42
-1.26966 0.0121182 2.70285 42 46 55
-1.27221 0.00938224 2.70195 41 46 46
-1.27522 -0.0201627 2.69893 74 86 97
-1.26968 -0.00837636 2.69808 22 25 26
-1.26968 -0.00374967 2.69792 52 61 70
-1.27881 0.0188631 2.69844 47 57 67
-1.27084 -0.00895417 2.69723 34 38 41
-1.27062 -0.00526701 2.69709 81 94 107
-1.28056 0.0185379 2.69685 26 29 34
-1.26494 -0.0301486 2.69476 118 118 112
-1.27337 0.0147296 2.69524 134 137 143
-1.27276 -0.00632307 2.69494 100 105 112
-1.27243 -0.00993638 2.69465 78 87 98
-1.27402 0.013413 2.69402 165 167 171
-1.2728 -0.0153086 2.694 54 62 69
-1.2732 -0.00636691 2.69305 121 124 130
-1.27297 -0.001552 2.69293 45 48 52
-1.27255 -0.0176352 2.69264 148 149 150
-1.27214 -0.0114554 2.69197 55 62 75
-1.27226 -0.0198833 2.69186 161 157 152
-1.27231 -0.00882125 2.69159 76 85 95
-1.27205 -0.0217389 2.69134 73 77 82
-1.27052 -0.0115323 2.68824 65 69 75
-1.26919 -0.0203294 2.68737 48 52 58
-1.26778 0.00144699 2.68407 136 136 143
-1.26449 0.0190415 2.67841 59 64 72
-1.26155 0.0100231 2.67633 62 71 84
-1.26148 0.00669095 2.67589 140 138 136
-1.26301 0.00731672 2.6744 57 63 71
-1.26198 0.0101728 2.67188 52 58 69
-1.25131 0.0215359 2.70391 112 121 129
-1.27105 -0.00642813 2.70876 48 53 59
-1.25307 0.0213046 2.70368 66 77 89
-1.26659 0.000329036 2.7061 82 97 113
-1.27289 -0.0050713 2.70769 56 68 80
-1.26836 0.00451533 2.70467 45 53 65
-1.27241 -0.00625347 2.70535 94 99 105
-1.27062 0.00170921 2.70442 28 33 39
-1.26976 0.00393734 2.70417 39 42 42
-1.27103 0.00356961 2.70351 41 45 48
-1.26973 0.00689758 2.7029 50 57 62
-1.27111 0.00535033 2.70283 29 35 44
-1.26701 0.01221 2.70137 41 45 53
-1.25969 -0.018851 2.69928 47 55 63
-1.27108 0.00698573 2.70188 83 98 112
-1.25879 -0.0242058 2.69818 72 76 78
-1.27133 0.0234281 2.70147 40 47 52
-1.26983 0.00983042 2.70106 52 58 58
-1.25974 -0.0217103 2.69831 76 75 70
-1.27091 0.00919145 2.70062 48 54 56
-1.27482 0.020947 2.70093 46 53 60
-1.27321 -0.0216484 2.70047 71 79 88
-1.26504 -0.0144531 2.69782 83 88 96
-1.27486 -0.0223151 2.69934 69 77 84
-1.2742 -0.0202823 2.69834 76 87 98
-1.2676 -0.00541554 2.69533 79 93 105
-1.27917 0.0185618 2.69869 154 155 159
-1.26781 -0.00969136 2.69485 43 50 56
-1.26325 -0.016248 2.69303 26 28 32
-1.25851 -0.0314285 2.69159 163 166 169
-1.28449 0.0215182 2.69929 102 114 129
-1.28114 0.0183424 2.69786 67 66 68
-1.25972 -0.0301148 2.69128 60 60 60
-1.26927 -0.00569802 2.69398 25 29 33
-1.27134 0.014814 2.69401 135 137 144
-1.27034 -0.00645987 2.69348 99 103 110
-1.26982 -0.0101268 2.69308 77 86 97
-1.26903 -0.0239419 2.69279 97 94 82
-1.27039 -0.0150603 2.6928 41 46 51
-1.27206 0.0134815 2.69282 165 166 170
-1.27252 0.0155685 2.69262 169 167 169
-1.27022 -0.00744704 2.69195 165 164 166
-1.26993 -0.0164564 2.6918 41 47 50
-1.26968 -0.0179503 2.69089 144 145 145
-1.26915 -0.0202568 2.68994 163 158 153
-1.27062 -0.00658243 2.69004 124 125 132
-1.26303 -0.0289537 2.68672 50 56 60
-1.26623 -0.0118786 2.68554 63 68 74
-1.26417 -0.0209358 2.68421 43 47 52
-1.26175 0.00134359 2.68021 133 134 140
-1.26031 0.00521139 2.67935 95 107 116
-1.25637 0.0182856 2.67247 50 53 57
-1.25146 0.0102643 2.66969 67 76 89
-1.25185 0.00668709 2.6688 170 168 167
-1.25319 0.00743002 2.66781 56 62 69
-1.25113 0.00967111 2.66487 78 86 97
-1.47716 0.00489073 2.81819 78 91 103
-1.47716 0.00489098 2.81818 105 116 125
-1.47629 0.00483218 2.81773 71 76 81
-1.47715 0.00489169 2.81818 63 74 85
-1.47713 0.00489356 2.81817 50 63 75
-1.47691 0.00487417 2.81805 23 26 33
-1.47696 0.00487697 2.81808 29 35 45
-1.47692 0.00487606 2.81806 72 81 93
-1.47698 0.0048801 2.81808 28 30 36
-1.47708 0.00488514 2.81814 47 57 73
-1.47698 0.00488108 2.81809 36 38 45
-1.47682 0.00487022 2.818 83 98 114
-1.4769 0.00487819 2.81804 78 90 104
-1.47673 0.004864 2.81795 48 49 50
-1.477 0.00488347 2.8181 27 28 35
-1.4769 0.00487768 2.81804 44 49 58
-1.47707 0.00488624 2.81813 30 33 39
-1.47671 0.00486936 2.81794 87 101 114
-1.47686 0.00488058 2.81802 43 45 51
-1.47703 0.00488681 2.81811 44 49 56
-1.47701 0.00488643 2.8181 37 37 41
-1.47678 0.00487831 2.81797 85 97 110
-1.47705 0.00488792 2.81812 25 31 44
-1.47675 0.00487918 2.81796 77 88 100
-1.47689 0.00488552 2.81803 59 62 65
-1.47704 0.00488885 2.81811 55 58 59
-1.47694 0.00488738 2.81806 87 98 110
-1.47686 0.00488583 2.81802 54 54 55
-1.47667 0.00487928 2.81791 56 64 74
-1.477 0.00488908 2.81809 37 37 44
-1.47706 0.00489827 2.81812 51 61 74
-1.47698 0.00488949 2.81808 89 99 109
-1.47683 0.00488626 2.818 50 51 50
-1.47662 0.00487912 2.81788 47 53 61
-1.47719 0.00486857 2.81819 72 80 89
-1.47657 0.00487721 2.81785 34 35 33
-1.47634 0.00486583 2.81773 28 33 38
-1.47679 0.00488709 2.81797 87 100 110
-1.47696 0.00490265 2.81807 52 47 51
-1.47697 0.00490224 2.81807 66 64 67
-1.47718 0.00486817 2.81819 64 70 77
-1.47647 0.00487508 2.81779 32 35 35
-1.47694 0.00490433 2.81806 87 93 97
-1.47693 0.00490474 2.81805 45 42 50
-1.47712 0.00485941 2.81816 107 112 118
-1.47712 0.00485972 2.81815 97 104 112
-1.47691 0.00491553 2.81804 81 95 106
-1.47712 0.00485889 2.81815 95 101 109
-1.47693 0.00489323 2.81805 39 43 51
-1.4771 0.00485955 2.81815 108 110 114
-1.47711 0.00485946 2.81815 122 122 125
-1.47713 0.00485819 2.81816 75 79 81
-1.47718 0.00486147 2.81819 169 163 155
-1.47711 0.00485989 2.81815 124 125 127
-1.47676 0.00489182 2.81795 53 59 64
-1.47675 0.00493098 2.81794 56 66 72
-1.47713 0.00485833 2.81816 59 66 71
-1.4771 0.00486115 2.81814 98 101 108
-1.47709 0.0048651 2.81814 154 155 158
-1.47712 0.00485932 2.81815 135 135 136
-1.47666 0.00493926 2.81789 52 61 69
-1.47709 0.00485965 2.81814 51 57 64
-1.47677 0.00489315 2.81796 56 62 62
-1.4771 0.00485896 2.81815 139 138 136
-1.4767 0.0048936 2.81792 43 47 46
-1.47708 0.00485893 2.81813 130 135 141
-1.47708 0.00486044 2.81813 26 30 33
-1.4771 0.0048589 2.81814 115 116 118
-1.47715 0.00485883 2.81817 106 106 107
-1.47706 0.00485805 2.81812 103 107 113
-1.47707 0.004865 2.81812 70 82 94
-1.47708 0.00486478 2.81813 38 45 54
-1.47707 0.00486883 2.81812 30 34 39
-1.47718 0.00486183 2.81819 132 131 130
-1.47704 0.00486401 2.8181 23 26 26
-1.47702 0.00486146 2.81809 78 89 100
-1.47704 0.0048727 2.8181 90 106 121
-1.47704 0.00486583 2.8181 91 107 119
-1.47717 0.00485838 2.81818 178 177 177
-1.47717 0.00485864 2.81818 197 195 194
-1.47716 0.00485789 2.81818 168 170 171
-1.47704 0.0048622 2.8181 50 58 65
-1.47704 0.00486758 2.8181 20 21 23
-1.47716 0.00485759 2.81817 129 141 151
-1.47712 0.004863 2.81815 62 72 79
-1.47716 0.0048576 2.81817 178 178 178
-1.47716 0.00485756 2.81817 64 65 65
-1.47716 0.00485754 2.81817 159 157 156
-1.47703 0.00486197 2.81809 67 77 88
-1.47716 0.00485717 2.81817 167 169 171
-1.47693 0.00489816 2.81803 132 136 142
-1.47705 0.00484402 2.81811 33 38 43
-1.47699 0.00486366 2.81807 79 88 98
-1.47701 0.00485291 2.81808 63 64 66
-1.47696 0.00489408 2.81805 143 144 147
-1.47699 0.0048638 2.81807 102 106 113
-1.47702 0.00486011 2.81808 76 84 95
-1.47702 0.00486064 2.81808 69 81 93
-1.47704 0.00484498 2.8181 99 96 86
-1.477 0.00485222 2.81808 133 133 135
-1.47704 0.00484546 2.8181 143 145 148
-1.47702 0.00485311 2.81809 136 132 133
-1.47702 0.00486029 2.81809 41 45 51
-1.47679 0.00491023 2.81794 137 133 135
-1.47705 0.00484658 2.8181 54 64 74
-1.477 0.00486391 2.81807 105 108 115
-1.47701 0.00485238 2.81808 40 45 49
-1.47703 0.00486112 2.81809 80 89 100
-1.47693 0.00489611 2.81803 142 146 154
-1.47707 0.00484812 2.81811 153 151 151
-1.47702 0.00486025 2.81809 45 51 58
-1.47702 0.00485301 2.81808 53 61 68
-1.47707 0.00485503 2.81812 94 94 94
-1.47694 0.00489494 2.81804 91 95 103
-1.47706 0.00485403 2.81811 76 78 81
-1.47704 0.00485322 2.8181 130 130 131
-1.47701 0.00486543 2.81808 21 22 23
-1.47703 0.00486423 2.81809 166 165 167
-1.47704 0.00485343 2.81809 45 50 53
-1.47709 0.00487728 2.81813 79 92 105
-1.47692 0.0049004 2.81802 169 166 169
-1.47704 0.00485494 2.8181 41 46 51
-1.47694 0.0048987 2.81803 54 65 76
-1.47706 0.00487509 2.81811 72 82 91
-1.47704 0.00486459 2.8181 52 56 63
-1.47707 0.00486379 2.81811 24 26 29
-1.47703 0.00487202 2.81809 46 49 51
-1.47711 0.00485355 2.81814 40 45 48
-1.47705 0.00485361 2.8181 134 138 140
-1.47705 0.00485362 2.8181 144 145 146
-1.47708 0.0048531 2.81812 54 56 55
-1.47707 0.00487482 2.81811 31 34 36
-1.47707 0.00486289 2.81811 38 44 53
-1.47706 0.00485358 2.81811 77 81 85
-1.47711 0.00485449 2.81814 106 109 110
-1.47711 0.00485422 2.81814 107 108 108
-1.47705 0.00486494 2.8181 170 168 169
-1.47716 0.00485848 2.81817 96 100 102
-1.47708 0.00486269 2.81812 53 60 72
-1.47714 0.00485648 2.81816 111 110 107
-1.47706 0.00486247 2.81811 57 65 76
-1.47704 0.00486594 2.81809 107 109 115
-1.47708 0.00485352 2.81812 157 153 150
-1.47704 0.00486625 2.8181 46 53 61
-1.47707 0.00486273 2.81811 147 145 149
-1.47707 0.00485496 2.81811 65 74 82
-1.47708 0.00486555 2.81812 77 86 97
-1.4771 0.00485988 2.81813 47 54 59
-1.47708 0.00485338 2.81812 60 69 79
-1.47705 0.00486648 2.8181 121 124 131
-1.47709 0.00485312 2.81812 73 77 82
-1.47705 0.00486642 2.8181 114 118 126
-1.47709 0.00485337 2.81812 145 147 150
-1.47706 0.00486584 2.81811 99 103 110
-1.47709 0.00485398 2.81812 64 73 81
-1.47706 0.00486691 2.81811 58 67 78
-1.47709 0.00486595 2.81812 80 83 90
-1.47716 0.00485803 2.81817 160 150 129
-1.47714 0.00485638 2.81816 43 49 54
-1.4771 0.00486531 2.81813 123 126 131
-1.4771 0.00486468 2.81813 40 46 52
-1.4771 0.00488113 2.81813 68 83 99
-1.47714 0.00485686 2.81816 40 47 52
-1.4771 0.004865 2.81813 76 83 90
-1.47715 0.00485767 2.81816 190 186 181
-1.47712 0.00485796 2.81814 145 145 146
-1.47713 0.00485832 2.81815 92 97 104
-1.47713 0.00485883 2.81815 64 73 82
-1.47714 0.00486294 2.81816 85 99 110
-1.47714 0.00485948 2.81815 152 150 150
-1.47711 0.00488119 2.81813 77 91 105
-1.47715 0.00486357 2.81816 36 42 47
-1.47714 0.00486802 2.81816 67 72 79
-1.47714 0.00487764 2.81815 79 90 104
-1.47716 0.00486388 2.81817 47 52 57
-1.47712 0.00488073 2.81814 63 74 85
-1.47716 0.00486766 2.81816 149 148 149
-1.47718 0.00486812 2.81818 158 157 159
-1.47719 0.00487868 2.81818 133 134 143
-1.47711 0.00489578 2.81813 118 125 130
-1.47719 0.00488139 2.81819 74 84 94
-1.47721 0.00488589 2.8182 71 76 82
-1.47722 0.00488531 2.8182 117 119 127
-1.47703 0.00490181 2.81812 158 166 166
-1.47701 0.00490492 2.81811 63 77 91
-1.47698 0.00488029 2.81809 46 52 60
-1.47694 0.00486725 2.81807 61 70 78
-1.47695 0.00487374 2.81807 62 72 84
-1.47701 0.00490329 2.8181 94 108 122
-1.47685 0.0048589 2.81802 167 170 175
-1.47698 0.00488334 2.81809 159 167 167
-1.477 0.00490652 2.8181 88 101 108
-1.47681 0.00485581 2.818 112 116 124
-1.47692 0.00487346 2.81805 70 81 98
-1.47698 0.00488735 2.81808 37 44 58
-1.47692 0.00487599 2.81805 77 88 102
-1.47683 0.00485389 2.81801 186 179 166
-1.47698 0.0048902 2.81809 31 32 40
-1.4769 0.0048719 2.81804 81 96 113
-1.47692 0.00487985 2.81806 67 78 92
-1.47679 0.00485485 2.81798 149 148 147
-1.47689 0.00486853 2.81803 49 50 51
-1.47695 0.00488557 2.81807 86 92 99
-1.4769 0.00487456 2.81804 41 46 55
-1.47696 0.00488824 2.81807 28 30 35
-1.4769 0.00487834 2.81804 47 55 65
-1.47698 0.00490381 2.81808 41 50 65
-1.47699 0.00489549 2.81809 71 80 90
-1.4768 0.00485136 2.81798 191 188 187
-1.47706 0.00485273 2.81813 93 96 101
-1.47693 0.00488687 2.81805 45 46 48
-1.47706 0.00485466 2.81812 64 71 78
-1.47689 0.00487981 2.81803 43 49 58
-1.47691 0.00488524 2.81804 55 56 57
-1.4769 0.00488296 2.81804 89 100 112
-1.47679 0.00485359 2.81797 71 79 88
-1.47684 0.00485418 2.818 129 127 126
-1.47694 0.00490427 2.81806 54 48 52
-1.47701 0.00484505 2.8181 124 120 114
-1.47688 0.00487895 2.81802 77 89 98
-1.47692 0.00485655 2.81805 33 41 47
-1.47705 0.00484215 2.81812 158 153 147
-1.47688 0.00488228 2.81802 85 99 113
-1.47684 0.00486064 2.818 141 139 142
-1.47703 0.00484165 2.81811 46 54 61
-1.47686 0.00487496 2.81801 31 36 45
-1.47701 0.00484233 2.8181 71 75 74
-1.4769 0.00488582 2.81803 50 57 64
-1.47693 0.00489328 2.81805 39 43 51
-1.47692 0.0049149 2.81804 82 95 105
-1.477 0.00484527 2.81809 129 128 129
-1.47704 0.0048411 2.81811 21 23 22
-1.47691 0.00488884 2.81803 47 52 56
-1.47702 0.00484139 2.8181 125 129 130
