# .PCD v0.7 - Point Cloud Data file format
VERSION 0.7
FIELDS x y z normal_x normal_y normal_z curvature
SIZE 4 4 4 4 4 4 4
TYPE F F F F F F F
COUNT 1 1 1 1 1 1 1
WIDTH 594
HEIGHT 1
VIEWPOINT 0 0 0 1 0 0 0
POINTS 594
DATA ascii
-0.28291667 0.094407484 1.3835144 0.30670974 -0.91574186 -0.25951082 0.25630686
-0.28435701 0.11665083 1.3795997 0.45506775 0.38735449 -0.80179167 0.23314258
-0.28883266 0.074373879 1.3784577 0.8034392 0.025069859 -0.59485877 0.1255744
-0.28761926 0.042129193 1.379792 0.815965 -0.37547165 -0.4395704 0.18009534
-0.28493902 0.10545786 1.3760507 0.34713936 -0.64742798 -0.67847711 0.20446385
-0.28958678 0.088974461 1.3706173 0.8469407 0.24209949 -0.47337016 0.15315816
-0.29210874 0.15498973 1.3672384 -0.6867578 0.63270873 -0.35783163 0.19413586
-0.29004446 0.12343708 1.3657514 0.55253929 0.080962233 -0.8295452 0.20867623
-0.29207531 0.10102629 1.3627721 0.91412824 -0.055285659 -0.40163815 0.19148786
-0.29696921 0.066375591 1.3632694 0.84532797 0.1334288 -0.51731753 0.11060292
-0.29412922 0.087952301 1.3582163 0.98496789 0.084300578 -0.15077038 0.13669896
-0.2961916 0.11387005 1.3546585 0.068289436 0.9868542 -0.14647673 0.22993146
-0.29713777 0.075080469 1.3534266 0.96863693 0.030289449 -0.24662733 0.096122995
-0.29549617 0.044445094 1.3543861 0.75011438 -0.28915209 -0.59474325 0.09018857
-0.29811418 0.097906262 1.3473468 0.98363411 -0.052819744 -0.17226137 0.11561368
-0.30916041 0.053527746 1.3472706 0.82050186 0.49731353 -0.28187916 0.17534675
-0.29865226 0.086541183 1.3429495 0.98552865 -0.066596977 -0.15587868 0.08645004
-0.30014658 0.11704087 1.3406855 0.93850672 0.22462074 -0.26220351 0.098264322
-0.29905552 0.041624308 1.3425471 0.85681444 -0.26018998 -0.44516322 0.02919081
-0.30237383 0.077198572 1.3348796 0.92976832 -0.074963488 -0.36043224 0.0078663211
-0.30427298 0.10690232 1.3308924 0.96984905 0.11347856 -0.21567428 0.079532757
-0.31174147 0.062896997 1.3326281 0.93244314 0.36044103 0.025141474 0.17408396
-0.30719122 0.04737819 1.3323177 0.92866677 -0.01218583 -0.37071478 0.11311633
-0.30843928 0.11435995 1.3204908 0.97395748 -0.12569487 -0.18870005 0.13559142
-0.30988315 0.074292861 1.3167607 0.93301094 -0.092934176 -0.34764048 0.0067180451
-0.31070474 0.10766961 1.3109131 0.96308398 0.015993787 -0.26872578 0.073112734
-0.31026077 0.086296834 1.3117208 0.93615192 -0.10633612 -0.3351301 0.0052813562
-0.30941537 0.12008557 1.3086418 0.95921952 -0.027798656 -0.2812919 0.070146963
-0.31314382 0.098918118 1.3028114 0.96667582 -0.07695289 -0.244164 0.085403681
-0.32147235 0.068080477 1.3009975 0.18803619 -0.53304601 -0.82492691 0.17353673
-0.31539148 0.11749817 1.296677 0.91653174 -0.3980602 0.03895621 0.20753145
-0.31648508 0.088955067 1.2969015 0.90534592 -0.21559094 -0.3658815 0.1269501
-0.41604483 0.12492969 1.5245304 -0.42214426 0.3096709 -0.85199654 0.077964485
-0.41060266 0.098211445 1.5203894 -0.29520109 0.079959489 -0.95208341 0.11467123
-0.40974107 0.11469955 1.5191965 -0.4106575 0.31020269 -0.85740006 0.082137533
-0.40030146 0.1152903 1.5121678 -0.3406789 0.16000634 -0.9264642 0.093081623
-0.40094712 0.095982067 1.5141355 -0.29520124 0.07995946 -0.95208329 0.11467122
-0.40192649 0.08349815 1.516486 -0.33160791 -0.00057414133 -0.94341707 0.10734131
-0.39555657 0.10307249 1.5078201 -0.42369595 0.20222688 -0.88294172 0.097936042
-0.38955197 0.12037327 1.503831 -0.48674688 0.336402 -0.80617076 0.097819753
-0.39260429 0.082518853 1.5111657 -0.35555461 -0.29513627 -0.88683462 0.068086788
-0.38679323 0.097239092 1.5047576 -0.39782533 -0.31813949 -0.8605361 0.069857873
-0.37932894 0.10460183 1.4986879 -0.45346382 -0.086786307 -0.8870393 0.08352796
-0.37366891 0.12454403 1.494606 -0.55184507 0.39854056 -0.73255199 0.12362086
-0.37406924 0.1382585 1.4971918 -0.59879482 0.44373217 -0.66674328 0.1152828
-0.37073663 0.10701636 1.4938693 -0.30180529 -0.074897505 -0.950423 0.1272438
-0.37124705 0.088180378 1.4963913 -0.25505114 -0.73525548 -0.62797147 0.087347962
-0.36144912 0.12936236 1.484117 -0.63353658 0.20514452 -0.74602079 0.10781002
-0.36150306 0.11225658 1.4851441 -0.56782949 -0.06663733 -0.82044452 0.11852846
-0.36372471 0.096605837 1.4900941 -0.47487068 -0.44713458 -0.758003 0.11843545
-0.35514304 0.09285038 1.4856695 -0.43725583 -0.68133301 -0.58702022 0.12825856
-0.3499594 0.10788503 1.4796748 -0.6823799 -0.17596266 -0.70950329 0.10259961
-0.34904265 0.1396434 1.479336 -0.64712888 -0.011157168 -0.76229894 0.065789722
-0.35689804 0.036553551 1.4973313 -0.43152559 0.084395044 -0.8981443 0.066744186
-0.34312284 0.12848474 1.4746346 -0.67010462 -0.020260321 -0.74199015 0.05294038
-0.34154138 0.089972273 1.4759157 -0.66290265 -0.4414303 -0.60473078 0.092921533
-0.33791292 0.14486174 1.4712877 -0.69578308 -0.031323504 -0.71756876 0.032357123
-0.33600506 0.10592192 1.4714434 -0.69269794 -0.072389618 -0.71758574 0.036293034
-0.33058497 0.13331699 1.4633477 -0.70606005 -0.012725121 -0.70803761 0.018020261
-0.3320283 0.12078848 1.4666723 -0.68888152 -0.11719732 -0.71533698 0.019855525
-0.34359357 0.032393802 1.4893367 -0.48519266 -0.15072487 -0.86131877 0.15270716
-0.3260226 0.08786644 1.4653009 -0.54989552 -0.43085641 -0.71552622 0.062223963
-0.32189509 0.098863281 1.4606392 -0.65986639 -0.19704928 -0.72508478 0.088974513
-0.33245069 0.042630132 1.482404 -0.56202704 0.12535338 -0.81756479 0.086833827
-0.31727788 0.12636779 1.4553877 -0.7166394 -0.071455255 -0.69377387 0.015811808
-0.31533703 0.14555271 1.4527746 -0.70445234 -0.02524793 -0.70930213 0.013185132
-0.317563 0.087760523 1.459527 -0.58272558 -0.49612197 -0.64365667 0.074957043
-0.33538589 0.01995388 1.4934833 -0.025760362 -0.38599324 -0.92214185 0.10681001
-0.31026155 0.10986436 1.4509789 -0.73569006 -0.095658161 -0.67052937 0.027709264
-0.30748221 0.13723405 1.4486697 -0.73277169 -0.049771104 -0.67865199 0.022871537
-0.32470936 0.065852553 1.4855212 -0.87636906 -0.3444401 -0.33665749 0.14337777
-0.3251844 0.020385562 1.4879078 -0.08303082 -0.44236988 -0.89298081 0.1058355
-0.30675444 0.088090017 1.4531485 -0.6848368 -0.49718466 -0.53273445 0.070622012
-0.30278277 0.097446918 1.447708 -0.64599925 -0.25973034 -0.71779186 0.037856493
-0.3131732 0.061320465 1.4773916 -0.56415534 -0.21061531 -0.79835463 0.12819901
-0.29618895 0.087263502 1.4460351 -0.58864057 -0.4397682 -0.67831129 0.036198098
-0.30738044 0.040887263 1.467731 -0.6658951 -0.12472261 -0.73554605 0.13532075
-0.29141942 0.1416743 1.4375477 -0.65688807 -0.014511724 -0.75384843 0.12767944
-0.29379645 0.11298243 1.4424216 -0.81616914 -0.2665371 -0.51266551 0.27184191
-0.30065355 0.051171407 1.4650797 -0.81642097 -0.22964647 -0.5298295 0.12529132
-0.30226952 0.069474995 1.4687635 -0.70345932 -0.2303531 -0.67237079 0.16456516
-0.28284976 0.098925486 1.4336721 0.73813838 0.67334747 0.041890051 0.21890517
-0.27661458 0.090458043 1.4302002 -0.643466 0.33304289 -0.68922704 0.25150973
-0.26857117 0.12383254 1.4251355 -0.16901043 -0.8603642 -0.48084182 0.20053959
-0.28913882 0.061918296 1.4679903 -0.26502979 -0.71280324 -0.64936179 0.1997385
-0.26051372 0.10642812 1.4177247 -0.84041905 0.24953645 -0.48106909 0.24007536
-0.29239771 0.013907054 1.4794438 0.95162064 0.26148006 0.16138887 0.093049511
-0.25735468 0.12622645 1.4155923 -0.75920391 -0.54915851 -0.34933418 0.25694719
-0.25767237 0.093985625 1.4171658 -0.44270051 -0.29821011 -0.8456282 0.15054905
-0.29338902 -0.0048742113 1.4901147 0.98534727 0.12588778 0.11507808 0.10759779
-0.25228402 0.11097801 1.41087 -0.62423158 -0.17248639 -0.76196027 0.15272005
-0.29522356 -0.024869965 1.497035 -0.93041426 -0.29318625 -0.21993461 0.16382399
-0.26405373 0.070975147 1.4369732 -0.69617754 -0.16732951 -0.69809574 0.18411294
-0.2470284 0.097266763 1.4083992 -0.42214382 -0.14823069 -0.89432788 0.15910235
-0.24722606 0.14986016 1.4088628 -0.51238066 -0.84782523 -0.13659531 0.25257128
-0.28974041 0.022743169 1.4956282 0.86028016 0.12839256 -0.49338961 0.14964774
-0.24031499 0.12445669 1.4031024 -0.51640308 -0.20137377 -0.83233196 0.11737496
-0.28763333 -0.034167539 1.4975092 0.92149252 0.36712334 0.12677549 0.094674766
-0.28218406 0.013670212 1.4888914 -0.97085196 0.074259542 -0.22788599 0.1164029
-0.23590437 0.10699476 1.3995966 -0.41767836 -0.19344972 -0.88776231 0.10946572
-0.28249061 -0.0082349135 1.4952366 0.97136873 0.051271018 -0.2319786 0.11442054
-0.23116127 0.12613758 1.3974829 -0.44823298 -0.25066727 -0.85805202 0.090816528
-0.22851932 0.15654886 1.3983707 -0.004293107 0.76517278 -0.64381069 0.12229045
-0.27353686 -0.024253584 1.4898957 0.84793806 0.32423472 -0.41937199 0.19275945
-0.27429754 0.0046286602 1.4954102 0.64864862 0.096147001 -0.75499052 0.094561905
-0.27324212 -0.054423042 1.4935735 -0.77117354 -0.42348787 -0.47534132 0.090159535
-0.28002608 -0.088745385 1.5109918 -0.95439756 -0.18671919 -0.23294051 0.084800631
-0.26399186 -0.046981897 1.4869175 -0.56927001 -0.15571725 -0.80726939 0.15700835
-0.27941421 -0.11437598 1.5181055 0.84686536 0.53081739 0.032432754 0.085032918
-0.28778508 -0.17237543 1.5365872 -0.95124 0.20603514 -0.22954744 0.082036555
-0.20514816 0.10421766 1.3729764 -0.62115449 -0.025747104 -0.78326511 0.069320954
-0.2727454 -0.097715698 1.5095087 -0.87761176 -0.3817077 -0.28999439 0.078249626
-0.20282187 0.13691233 1.3728787 -0.30016524 0.29712421 -0.9064315 0.1514027
-0.25986931 -0.060981438 1.4868368 -0.29138553 -0.47336259 -0.83127761 0.19214712
-0.26629776 -0.11249341 1.5097538 -0.83696222 -0.47896558 -0.26473814 0.086551741
-0.27615196 -0.17703192 1.5316392 -0.82676673 -0.039622463 -0.56114775 0.16455564
-0.18882181 0.097716413 1.362983 -0.053295016 0.064193644 -0.99651331 0.13649081
-0.28055304 -0.23387654 1.5477875 -0.47263455 -0.27802926 -0.83625144 0.26404244
-0.18382598 0.12256384 1.3559457 -0.49468786 -0.05198469 -0.86751455 0.089785568
-0.26844835 -0.19600342 1.5297183 -0.63912743 -0.66930526 -0.37887555 0.12349181
-0.18570998 0.083089702 1.3637631 -0.50710499 -0.13053446 -0.85194206 0.14285384
-0.2465286 -0.078730598 1.4860145 0.27536297 -0.4000203 -0.87416184 0.10976421
-0.18723969 0.036038749 1.3676212 -0.73732185 -0.12314325 -0.66422307 0.093259871
-0.25640598 -0.12163981 1.509689 0.78400356 0.62072039 -0.0066725127 0.11889739
-0.27220228 -0.22732313 1.5430646 -0.47263673 -0.27803066 -0.83624965 0.26404297
-0.26255554 -0.18134977 1.5295731 -0.51836741 -0.37897786 -0.76659703 0.15343015
-0.25137329 -0.13419764 1.5087312 0.66161776 0.74623686 -0.073434368 0.098214045
-0.17396352 0.16105303 1.3533314 -0.47744578 0.34598982 -0.80767351 0.11577119
-0.16981032 0.1174672 1.346048 -0.34719262 0.17467403 -0.92138278 0.18324754
-0.25860587 -0.31724408 1.5276263 -0.73200053 0.68120968 0.011339235 0.17494842
-0.24132498 -0.11827651 1.4980377 -0.65263313 -0.52556074 -0.54576182 0.15356125
-0.16207822 0.13670255 1.3430341 0.098547965 -0.97917277 -0.17750782 0.096616521
-0.25784025 -0.33296561 1.5390142 -0.49259421 0.86476773 -0.097609945 0.093870744
-0.25134194 -0.19760799 1.5291368 0.59889722 0.78053373 0.17913459 0.082948081
-0.23952162 -0.13833393 1.5062598 0.40056264 0.86682683 -0.2969189 0.10602613
-0.16679038 -0.0021091755 1.3630589 0.25414002 0.93078381 -0.26278195 0.17992717
-0.25249705 -0.23663117 1.5387044 -0.46989718 0.35407162 -0.80859751 0.20804186
-0.24169585 -0.20950514 1.526544 -0.066943295 -0.20723082 -0.975999 0.14874977
-0.24745831 -0.34636164 1.5399058 -0.49259427 0.86476773 -0.097609945 0.093870841
-0.22808982 -0.14214435 1.5014304 0.53146201 0.84628963 0.036631893 0.078127719
-0.23954901 -0.27200502 1.5250009 0.44705227 0.082821511 -0.89066547 0.085325003
-0.23350438 -0.30760944 1.5134366 0.53108716 -0.19425912 -0.82474834 0.096216261
-0.23977789 -0.32281956 1.528993 0.79399687 -0.51113147 -0.32911026 0.15863094
-0.24184132 -0.24379879 1.5374832 -0.015171132 0.26964197 -0.96284109 0.18365192
-0.13707262 0.056693964 1.3255681 -0.81169331 -0.1373805 -0.5676977 0.11059169
-0.23010801 -0.16256514 1.5174091 -0.068965949 -0.19654639 -0.97806609 0.19156443
-0.23778379 -0.33368817 1.5374584 -0.82198703 0.55349505 -0.13409156 0.10663497
-0.22968701 -0.31621087 1.5216655 0.69901031 -0.41424826 -0.58290899 0.12060316
-0.23075496 -0.22395225 1.5263152 -0.084095336 0.047759503 -0.99531245 0.18249442
-0.23428215 -0.25985402 1.5352163 0.50978351 0.005089472 -0.86028767 0.10611402
-0.12408039 0.10552938 1.3103516 0.87365007 0.41015589 -0.26173961 0.19402252
-0.21205369 -0.14983943 1.4961892 0.43459693 0.89969081 0.041010872 0.064605139
-0.22842941 -0.2076714 1.530269 0.46890789 0.87333238 0.13196954 0.15066244
-0.15947823 -0.083014421 1.3889922 -0.047745392 0.93309039 -0.35645854 0.15751797
-0.13851573 -0.0074547417 1.3509693 -0.23162259 0.076204598 -0.96981639 0.10771951
-0.13324961 0.033276252 1.3425893 -0.68534821 -0.43418941 -0.58461732 0.16693819
-0.22234946 -0.30312845 1.5275228 0.76600778 -0.34060529 -0.54517895 0.11680604
-0.23060347 -0.3352488 1.5466142 0.81677943 -0.56421858 -0.12053546 0.081452332
-0.12426134 0.064390153 1.3263503 -0.58634293 -0.17531928 -0.79086351 0.12502356
-0.12176546 0.077462263 1.323046 -0.29876539 0.332616 -0.89448631 0.10652287
-0.1111444 0.1318485 1.3009851 -0.7868759 0.32624888 -0.52382058 0.18925743
-0.2258092 -0.31912363 1.5406414 0.73411113 -0.66482002 -0.13818559 0.11356442
-0.19872408 -0.14159736 1.4871957 0.41384771 0.90034747 0.13455273 0.059195336
-0.14299405 -0.085732907 1.377889 0.28784779 0.65106255 -0.70232564 0.18851134
-0.14358738 -0.073756211 1.3804064 0.015061353 -0.90581197 -0.42341208 0.16879795
-0.21554464 -0.21987215 1.5315151 0.39869782 0.179235 -0.89939702 0.16998494
-0.22048053 -0.30270469 1.5425382 0.82193279 -0.51070815 -0.2521978 0.097107597
-0.12581517 0.014477219 1.3468156 -0.16589975 -0.027944265 -0.98574656 0.15124696
-0.1182122 0.051115714 1.3311652 -0.12576509 -0.6020444 -0.78849584 0.20242403
-0.14581972 -0.10004172 1.388988 0.66027296 -0.10812482 -0.74320167 0.16762745
-0.19260296 -0.15266632 1.4878235 -0.1733018 -0.96826917 -0.18005922 0.037555538
-0.21954018 -0.28946707 1.5444854 0.66499478 -0.094467752 -0.74084944 0.12916777
-0.21374486 -0.25413013 1.5328429 0.41011271 -0.10983179 -0.90539747 0.088158749
-0.21295129 -0.23391387 1.5328889 0.35688594 -0.083226167 -0.93043309 0.14364702
-0.13495654 -0.074013673 1.3712097 -0.93471706 0.23094803 -0.27012405 0.2127205
-0.20999826 -0.20039995 1.5324051 0.14316282 -0.50364435 -0.85196644 0.15344582
-0.11842888 -0.0074169762 1.3450733 -0.19283348 -0.077887632 -0.97813535 0.17673984
-0.093051493 0.12692609 1.2949971 -0.16895328 -0.15218824 -0.9738037 0.17191657
-0.13219139 -0.09772478 1.3798954 0.59857589 0.62601888 -0.49980721 0.16109617
-0.20884924 -0.27340677 1.5431424 0.3554374 -0.2246739 -0.90729594 0.09398561
-0.089543268 0.11193182 1.2941022 -0.39782006 0.14379475 -0.90612483 0.1465483
-0.11296182 0.015611947 1.3460279 -0.069356255 -0.1474805 -0.9866302 0.18017296
-0.087925769 0.14185716 1.293287 -0.044573843 0.91990423 -0.38960162 0.096902385
-0.12258831 -0.07642138 1.3688178 -0.83792686 -0.055622403 -0.54294086 0.23833328
-0.11523197 -0.05094495 1.3549086 -0.27884924 -0.17393498 -0.94445205 0.086742185
-0.10863985 0.035331879 1.3461987 0.50247502 0.21182923 -0.8382405 0.12184056
-0.084226854 0.1005725 1.2949771 -0.10600497 -0.20728239 -0.97252095 0.16775578
-0.10590833 -0.0100848 1.3422456 -0.21625376 -0.042797334 -0.97539872 0.1938781
-0.19034415 -0.18942356 1.5265449 0.63637841 -0.39490235 -0.66262704 0.15762126
-0.079654902 0.11973762 1.2929122 -0.14864145 -0.19360106 -0.96975476 0.17170689
-0.10490615 -0.046764594 1.3506467 -0.50088686 -0.42676041 -0.75298601 0.15446618
-0.11628728 -0.11280546 1.3794234 0.33911729 0.93661135 -0.088082232 0.15201069
-0.19667211 -0.2999692 1.5571167 0.53374749 -0.43927351 -0.72260123 0.092123516
-0.07343781 0.13325641 1.2941256 0.0599861 0.022911513 -0.99793625 0.22423169
-0.18956372 -0.23355484 1.5434113 0.21569005 -0.15376775 -0.96427858 0.186646
-0.11507362 -0.13385098 1.3896989 -0.57471824 -0.77217054 -0.27101964 0.17548035
-0.091507293 0.015933126 1.3450118 0.3189356 0.7570529 -0.57022005 0.25807464
-0.066981755 0.11522461 1.2953926 0.14687078 0.97895324 -0.1417024 0.093086831
-0.18404172 -0.25453344 1.5515012 0.7196607 0.088589363 -0.68865114 0.23618346
-0.065563656 0.097600542 1.2966114 0.22600801 -0.47003996 -0.85321909 0.22121309
-0.10261546 -0.11226082 1.3789179 -0.075118482 0.9942764 -0.075971976 0.15409778
-0.10119563 -0.12749536 1.3794456 -0.31816316 -0.87648177 -0.36131981 0.15759633
-0.09037298 0.049370918 1.356397 0.037494879 0.55527723 -0.83081967 0.11874086
-0.17231745 -0.19841981 1.5358576 0.23635292 -0.061250884 -0.96973485 0.19492047
-0.18106326 -0.27125654 1.5575262 0.65607619 -0.075461827 -0.75091249 0.077633552
-0.061320435 0.13940975 1.2995652 -0.61358863 -0.71565509 -0.33368659 0.21358395
-0.065732107 0.084848471 1.3094946 0.25190204 -0.96526659 -0.06932421 0.12041813
-0.18245696 -0.28418851 1.5626966 0.60477597 -0.22859223 -0.76288372 0.098856412
-0.18468139 -0.30327785 1.5687226 0.34166732 -0.82784384 -0.44490221 0.156588
-0.080322452 -0.050293915 1.343547 -0.26470307 -0.70691788 -0.65589589 0.15644965
-0.17152186 -0.22474876 1.5437438 0.50243151 -0.75992924 -0.41239566 0.1767446
-0.086012356 0.069543809 1.3588675 0.48386949 -0.47887424 -0.73249561 0.23789155
-0.071907282 -0.027695009 1.3388947 0.1448075 0.80684865 -0.57273573 0.18648978
-0.054966372 0.094447039 1.3039443 0.27814803 -0.5363856 -0.79682136 0.17656967
-0.16229561 -0.20916013 1.5408316 -0.44829094 -0.33565268 -0.82847595 0.20548348
-0.17671582 -0.28552958 1.5731543 0.86496782 -0.40030864 -0.30262786 0.21975335
-0.084466726 -0.12352102 1.3720778 -0.30035347 -0.907965 -0.29221088 0.14012317
-0.17905685 -0.31142336 1.5797575 0.58570957 -0.7768994 -0.23102306 0.11322542
-0.077222854 0.041878667 1.359053 0.068882227 0.27694657 -0.95841324 0.19544889
-0.051467717 0.11022598 1.3036315 0.23341918 -0.68397391 -0.69115502 0.17921916
-0.080331951 -0.10826594 1.3672742 -0.061402936 -0.39192754 -0.91794467 0.19646193
-0.054026656 0.081617363 1.3146514 0.055465478 -0.85467255 -0.51619607 0.14272282
-0.085857727 -0.1446372 1.3845193 -0.32241893 0.9465816 0.0054148375 0.26645949
-0.17204212 -0.29437593 1.5841808 0.42224222 -0.88156205 -0.21109198 0.1377243
-0.1532115 -0.22662215 1.5429842 -0.13560827 -0.46856135 -0.87296087 0.20830861
-0.061385423 -0.041258741 1.3408858 0.27766877 -0.0032094426 -0.96067154 0.20021933
-0.069003902 -0.087688498 1.3579736 0.07626316 -0.44872355 -0.89041066 0.23975275
-0.072986551 -0.11886302 1.3688703 0.070453502 -0.49667969 -0.86506963 0.1921725
-0.067106351 -0.10412905 1.3641948 -0.33846262 -0.21286634 -0.91658658 0.1956892
-0.16681516 -0.28161865 1.5846472 0.9404195 -0.28565362 -0.18442683 0.14224915
-0.042268641 0.097489052 1.3120226 0.23679976 -0.40660217 -0.88238347 0.23594546
-0.03997812 0.11130133 1.3104511 -0.2499263 -0.8923918 -0.37573096 0.19091287
-0.064223014 -0.12817706 1.3697414 -0.0070731216 -0.87120426 -0.4908697 0.20839044
-0.061741393 -0.11643831 1.3666042 0.02367714 -0.38790333 -0.9213959 0.12826821
-0.058593944 0.040058497 1.3607323 0.13722345 0.98215806 -0.12858912 0.10303531
-0.049438085 -0.036200829 1.341391 -0.10466176 -0.98709643 -0.12118807 0.11563995
-0.13436085 -0.22050263 1.531248 0.3580094 0.92774129 -0.10547781 0.11213477
-0.058425479 0.074489057 1.3624274 -0.49021429 0.30983007 -0.81467491 0.17291795
-0.049935475 -0.055279993 1.3437978 0.0092841303 -0.13445333 -0.99087644 0.12563649
-0.052171513 -0.089821659 1.3557422 0.016055033 -0.11077424 -0.99371594 0.15195972
-0.18665265 -0.34335384 1.6586826 0.99917638 0.034875471 0.020740137 0.044433601
-0.18450888 -0.33051118 1.657851 0.99689263 0.075132258 0.023670573 0.046030793
-0.057826713 -0.14096686 1.3762559 -0.29298994 -0.93424666 -0.2033224 0.17541414
-0.05072356 -0.10707752 1.3630327 0.0067623165 -0.60554719 -0.7957806 0.14660542
-0.031329416 0.096366897 1.3216771 0.58832014 -0.12351306 -0.79913944 0.11932953
-0.045637604 -0.12124646 1.3658251 0.069967538 -0.28622529 -0.95560437 0.24647941
-0.17930214 -0.33135325 1.6673989 0.99484605 0.090566531 -0.045595787 0.027989
-0.034072142 -0.04308847 1.3454566 0.30892473 0.13192263 -0.94189274 0.17560282
-0.033217445 -0.060679719 1.3469992 0.070504233 -0.22146872 -0.97261548 0.10152109
-0.038027726 -0.11003375 1.3623177 -0.29353321 0.87795603 -0.37819496 0.24452099
-0.037786879 0.071265779 1.3697078 -0.37253618 -0.048466343 -0.9267512 0.19850284
-0.03851074 -0.13459964 1.3711689 -0.26636791 -0.45995432 -0.84704792 0.20438153
-0.031595752 -0.093580402 1.3594487 0.35894391 -0.037253924 -0.93261534 0.17672087
-0.017521055 0.09931694 1.3319509 0.63497609 0.23337229 -0.73643917 0.14194185
-0.015767097 0.12368077 1.3301803 -0.3721669 -0.83087701 -0.41368499 0.12613854
-0.095070466 -0.23783524 1.5185071 -0.99113148 0.1236721 -0.048617173 0.2177155
-0.020560306 -0.03226839 1.3514622 -0.12153217 -0.87723196 -0.46442866 0.22004381
-0.024179216 -0.11126412 1.3644691 0.10539837 0.014816258 -0.99431962 0.21025853
-0.026185533 -0.12929155 1.3694737 0.1562821 -0.45911372 -0.87452298 0.11955345
-0.017276367 -0.05884156 1.3525689 -0.30382752 -0.47146615 -0.82789391 0.14259422
-0.0065911184 0.11411548 1.3386174 -0.87963933 -0.47475782 -0.028975729 0.1202794
-0.016344907 -0.096523114 1.3632904 0.30946311 -0.52666509 -0.79174268 0.20186311
-0.022671515 -0.13923356 1.3789434 0.077713408 -0.60737395 -0.79060578 0.095761672
-0.08343146 -0.22980139 1.5196254 -0.73423606 0.67886519 -0.0062890118 0.21222262
-0.082288168 -0.2153156 1.5210716 -0.39819652 0.91608661 -0.047167372 0.16522631
-0.015155431 -0.11997714 1.3685673 0.19207686 -0.13257979 -0.9723832 0.14919683
-0.003248075 0.10274523 1.3443742 0.73713428 -0.1122162 -0.66636372 0.17001255
-0.0068834992 -0.068187028 1.3593709 0.82362199 0.51921165 -0.22817998 0.14331642
-0.013168567 0.076931112 1.3752638 -0.25742844 0.37532341 -0.89042848 0.14879872
-0.075998515 -0.24066254 1.5242989 -0.78891987 -0.036402568 -0.61341691 0.22583985
-0.006096038 -0.081303582 1.3633914 -0.63995224 0.33447441 -0.69180059 0.21965815
-0.080079399 -0.25610283 1.5416607 -0.78891999 -0.036402773 -0.61341673 0.22583967
-0.008667198 -0.12939969 1.375397 0.193069 -0.44018725 -0.87690336 0.085215896
-0.0034117962 -0.10797339 1.3701771 0.07906267 -0.2698302 -0.9596566 0.14845099
0.0048680794 0.093428619 1.3551288 0.92016584 -0.29899138 -0.25278252 0.19917065
-0.07517796 -0.2169733 1.5442315 -0.64946461 -0.1359867 -0.74813318 0.16332768
-0.071413569 -0.25022334 1.5359678 -0.49597463 -0.28305876 -0.8209061 0.19917552
0.0028223768 -0.12235434 1.3778427 0.26200822 -0.36462811 -0.8935312 0.10759855
-0.063348562 -0.23152736 1.5360818 -0.49597549 -0.28305832 -0.8209058 0.19917551
-0.0018217806 -0.14629719 1.3917269 0.16180131 -0.83701211 -0.52271515 0.075442687
0.016583111 0.10913998 1.3594059 0.10593874 -0.75460142 -0.64757526 0.18835613
0.016721277 0.08773753 1.3715842 -0.26352254 -0.93040735 -0.25475109 0.25856644
0.016725579 0.05971669 1.3836867 -0.75712115 -0.64704108 -0.090030275 0.20142838
0.019322058 -0.11563963 1.3900123 0.80049407 0.36607248 -0.47455254 0.19066048
0.022276748 0.044552177 1.3852791 -0.012069996 0.99662995 -0.081136607 0.1346498
0.020436559 -0.097426467 1.3909206 0.9003154 0.1742491 -0.398835 0.097411789
0.026115442 -0.0094336458 1.3820413 -0.74202752 -0.44695202 -0.4996289 0.10830504
0.024281707 -0.027999062 1.3893882 -0.9133566 -0.2717773 -0.30317774 0.095923886
0.021996636 -0.13781919 1.4009717 0.75740236 0.26991874 -0.59454656 0.21350719
0.027791379 -0.042759005 1.3964962 -0.85319287 -0.50692314 -0.12284523 0.15829831
0.026268868 -0.12118615 1.4000282 0.84521514 -0.34237382 -0.41035542 0.19886979
0.035334881 -0.021451639 1.3863854 -0.74871463 -0.44430771 -0.49195239 0.11693527
0.042439751 0.11322989 1.3820679 0.72607964 0.67227948 -0.14439045 0.22210655
0.039882313 -0.038323 1.391312 -0.73051244 -0.41604811 -0.54153073 0.1532481
0.0387078 -0.11104333 1.4087851 0.51773787 0.12110811 -0.84692401 0.20861332
0.041323271 -0.12474243 1.4065334 0.6564278 -0.40057108 -0.63925374 0.1860514
0.044542864 -0.056219421 1.4005078 -0.61799008 -0.47811139 -0.62409759 0.18334445
0.044355694 -0.094014242 1.4086928 -0.99869597 0.049538549 -0.012339444 0.20234913
0.054345522 -0.12391438 1.4123739 -0.45890543 0.84284347 -0.28110608 0.21921992
0.05724879 -0.079636857 1.4079419 -0.68657422 -0.409228 -0.60095614 0.21640177
0.058236126 -0.09499497 1.4097403 -0.063719243 -0.2337769 -0.97020012 0.24032523
0.064634599 -0.064366102 1.4091213 -0.95943749 -0.26332721 -0.1006901 0.19831285
0.063204944 -0.12447207 1.4208139 -0.83795941 0.53047824 -0.12812811 0.22767191
0.066901051 -0.10496181 1.41759 -0.80859876 -0.36938295 -0.4579567 0.21044767
0.079764605 0.08436884 1.4281409 -0.4578366 -0.86657339 -0.19858564 0.095818512
0.073695518 -0.12050796 1.4491447 0.77887118 -0.34973472 -0.52062023 0.18058445
0.080884546 -0.098559067 1.4498411 0.81939638 -0.38759276 -0.42232856 0.16185057
0.086853452 0.07603468 1.4425957 -0.74960184 -0.65960771 -0.054906689 0.14699616
0.090018526 0.09148562 1.4399852 0.67830741 0.72890109 -0.092747673 0.14305896
0.082958132 -0.11693419 1.4635268 0.90018255 -0.34384406 -0.26728773 0.15537836
0.080945924 -0.1247969 1.4745001 0.8746013 -0.054105461 -0.48181441 0.16464625
0.092744067 0.072101109 1.4528924 0.094714455 -0.72189516 -0.68549007 0.18968515
0.090217642 -0.095647641 1.4604353 0.34297305 -0.71024609 -0.61475188 0.24628165
0.093723454 -0.068475284 1.4621413 -0.48014978 0.78497368 -0.39150041 0.10149885
0.093421713 -0.1034019 1.4694226 0.12001839 -0.94033819 -0.31837043 0.22528754
0.10014616 0.082062922 1.4558003 0.62649393 0.15720642 -0.76340783 0.10280091
0.09717489 -0.076865196 1.4699447 -0.75113344 0.60955322 -0.25346306 0.17576262
0.10620039 0.087882318 1.4637357 0.7292791 0.15422465 -0.66660839 0.12091219
0.096434362 -0.093419828 1.4912215 -0.9834004 0.17100416 0.060673181 0.21627295
0.10708281 0.074033566 1.4673769 0.65015364 0.28250709 -0.7053296 0.14709753
0.10715513 0.069705673 1.4791145 -0.012019694 -0.99039626 -0.13773412 0.16605648
0.11610077 0.096563041 1.4722749 0.66510022 0.015433053 -0.74659467 0.096982338
0.11741922 0.078387648 1.4799094 0.72247493 0.055597056 -0.68915814 0.11896996
0.11949889 0.073115401 1.4890505 0.63623488 -0.64421189 -0.42449525 0.15041682
0.11184972 0.065301612 1.5122482 -0.40973538 -0.91214895 0.010052552 0.086937174
0.12367193 0.09102422 1.4861041 0.43150163 -0.13509695 -0.89193898 0.11910615
0.12605625 0.083289035 1.4968331 0.38661769 -0.011483101 -0.92216855 0.1386838
-0.027398637 0.086339109 1.3126577 0.44521815 0.84539062 -0.29511961 0.22841755
-0.014504109 0.084477618 1.3286906 0.83849329 0.18154785 -0.51377952 0.16221726
-0.082818836 -0.23627102 1.4904339 -0.38862264 0.91264594 -0.12668748 0.094343893
-0.070988342 -0.22835028 1.4908081 -0.28021306 0.95564044 -0.090730146 0.057006422
-0.0024156237 0.086041264 1.3325521 0.03381341 -0.67565352 -0.73644352 0.25283077
0.0041533411 0.10147426 1.3271645 0.19543393 -0.14435013 -0.97003537 0.19185399
-0.0048238281 0.075655572 1.3557991 0.82647902 -0.089239635 -0.55584961 0.17746149
-0.063590653 -0.23907298 1.4953249 -0.12235171 -0.97801328 -0.16887893 0.13844295
0.012626105 0.092160113 1.3368721 0.69575626 -0.56993538 -0.43714628 0.26182228
-0.062296718 -0.21555854 1.5139027 -0.85434777 0.48938447 -0.17490749 0.22158855
-0.053703789 -0.2323731 1.5026586 -0.87550509 -0.29296169 -0.38427129 0.11922631
0.035921432 0.09766987 1.3509263 0.85530668 -0.083891355 -0.51128531 0.10077678
0.032519255 0.07277371 1.3611535 0.16816257 -0.12913832 -0.97726387 0.16508158
0.032406501 -0.028387997 1.369645 -0.65313762 -0.26365039 -0.70985901 0.11066374
0.037721332 0.050973084 1.3620858 0.08977288 -0.906748 -0.41200596 0.23749313
0.036807567 -0.043132223 1.3744467 -0.38882205 -0.56270403 -0.72950774 0.079701275
0.048154164 0.063070513 1.3620446 0.89116788 0.012331806 -0.45350605 0.15989468
0.052085284 0.050237007 1.3662763 -0.90614694 -0.019537363 -0.42251158 0.13832548
-0.093649946 0.0032391276 1.3449919 -0.64615595 0.39948401 -0.65030384 0.1467016
-0.047141079 -0.04805829 1.3441449 0.34149808 -0.36774951 -0.8649506 0.25335035
-0.14693919 -0.28204015 1.5896647 0.96349609 -0.10437322 -0.24653916 0.11670472
-0.018701134 -0.11580917 1.3648583 -0.40584055 0.15937822 -0.89993995 0.17749849
-0.07397595 -0.25517267 1.5273684 -0.72974145 -0.25333422 -0.6350584 0.21092075
0.037945099 -0.021683648 1.3799796 -0.83624876 -0.50798374 -0.20649576 0.1235737
-0.033593472 0.07635314 1.3760489 -0.28183007 -0.42471543 -0.86034214 0.14674845
-0.01934409 -0.058751445 1.3573316 -0.30382627 -0.4714649 -0.82789516 0.14259398
-0.14361529 -0.0071942541 1.3615259 0.05190023 -0.98901612 -0.13839591 0.15694962
-0.11343168 0.097211197 1.3023173 -0.73577523 -0.46040002 -0.4966554 0.24981053
-0.10910846 0.13223609 1.2965838 -0.78251058 0.22887357 -0.57904583 0.18889365
-0.10066609 0.10660951 1.2916527 -0.7700367 0.54758567 -0.3274039 0.18470047
-0.11999754 -0.0071256286 1.3483456 -0.19283332 -0.07788755 -0.97813535 0.17673966
-0.10570163 -0.0097468048 1.3417761 -0.21625341 -0.042797342 -0.97539884 0.19387786
-0.09261626 -0.10861133 1.3722501 -0.17711361 -0.86999452 -0.46015245 0.1484967
-0.1561476 -0.012856907 1.361811 0.16906001 -0.98416543 -0.053264838 0.086834125
-0.13644689 -0.0074952892 1.3466834 -0.30392942 0.056625996 -0.95101023 0.13320541
-0.10361141 0.09591493 1.2819071 -0.53932226 -0.10665254 -0.83531833 0.22259814
-0.090214685 0.10490073 1.2698379 -0.32590234 -0.036126751 -0.944713 0.21661133
-0.086565286 -0.12056204 1.3583122 -0.32522374 -0.42000979 -0.84724343 0.14139302
-0.070569195 -0.12589417 1.3493013 -0.078158379 -0.4050366 -0.9109537 0.19746312
-0.16704111 -0.0021912153 1.3635848 0.25414014 0.93078369 -0.26278222 0.17992721
-0.20430729 0.06273067 1.4004747 -0.60341436 -0.66049808 -0.44680348 0.20379579
-0.17493859 0.050566997 1.3701206 -0.70873487 -0.27000195 -0.65176201 0.19061688
-0.16837966 -0.01192888 1.3868341 -0.32689327 -0.93439239 -0.14160386 0.066406004
-0.11690889 0.10176517 1.30999 -0.70797175 0.32425624 -0.62740254 0.20247005
-0.12139025 0.082892559 1.3168075 0.70321149 -0.10518932 -0.70315629 0.25239795
-0.10588586 0.14633906 1.3029484 0.016285617 -0.99385422 0.10949256 0.13413936
-0.094414257 0.08648859 1.3033344 -0.060631335 -0.96764994 -0.24490318 0.11933025
-0.076697916 0.085800014 1.2984418 -0.013769818 -0.97954041 -0.20077565 0.096868001
-0.039147723 0.083224028 1.3230629 0.057205223 -0.93704832 -0.34448215 0.18672864
-0.029086713 0.082441956 1.3424817 -0.17808764 -0.9725346 -0.14987099 0.23849547
-0.011129984 0.087240569 1.3527417 0.80977482 -0.091084652 -0.57962781 0.14540774
0.0045298464 0.11974125 1.3505204 -0.014837019 -0.9782843 -0.20673557 0.21201068
0.0056855301 -0.074238792 1.3724997 0.88755882 -0.07052473 -0.4552643 0.18627122
0.0092552723 -0.095992841 1.3795025 0.65291107 -0.28940308 -0.69996649 0.1394548
0.005531501 -0.13148125 1.3929992 0.57088834 -0.56119931 -0.59928441 0.13184282
0.021777371 0.12436336 1.37239 0.32969889 -0.9371767 -0.11401109 0.24489272
0.025441149 0.099356547 1.3763032 -0.80342907 -0.59059906 -0.075461969 0.20792778
0.021099458 0.07403715 1.3888396 0.86761361 -0.065846905 -0.49285993 0.21056601
0.026934201 0.086930238 1.3865229 -0.66017383 -0.50817716 -0.55310619 0.20067376
0.032300256 0.059121989 1.3880949 -0.67294735 -0.15066352 -0.72418392 0.2117589
0.04094816 0.091064572 1.3940222 0.99650919 -0.010368146 -0.082836844 0.27083874
0.065725066 -0.12485775 1.4455504 -0.26225072 0.96193415 0.076858528 0.17965274
-0.098593295 -0.023241144 1.3462175 -0.5066309 -0.85860479 -0.078250341 0.093963765
-0.28412151 0.013970938 1.4900832 -0.97085196 0.074259512 -0.22788596 0.11640288
-0.28662392 -0.024801668 1.508341 -0.9478879 -0.25698239 -0.18833102 0.17632541
-0.18041019 0.043887857 1.3638806 -0.60586977 -0.47191358 -0.64048362 0.16022094
-0.17879142 0.060549054 1.3620343 -0.31825671 0.11628329 -0.94084579 0.13621679
-0.17807102 0.078263178 1.3631891 -0.23285948 -0.30952248 -0.92193937 0.095599532
-0.29260895 -0.33883265 1.5624729 -0.56334782 0.80512017 -0.18552811 0.085183814
-0.29064757 -0.23626247 1.5610234 -0.86998963 -0.16877927 -0.46328354 0.20510121
-0.12673189 0.065295056 1.3200661 -0.58634281 -0.17531927 -0.79086357 0.12502348
-0.11754078 0.055231325 1.3216032 -0.33349594 -0.55403703 -0.76277351 0.08228308
-0.25896779 -0.19602683 1.5393164 -0.62283772 -0.6962651 -0.3567746 0.14971454
-0.25301537 -0.18136844 1.5388856 -0.35121232 -0.50658625 -0.7874136 0.18384857
-0.0833432 0.13464525 1.284322 -0.60378623 0.18218347 -0.77604854 0.17624736
-0.11921181 0.014433516 1.3414556 0.14066653 0.18060787 -0.97344434 0.16766265
-0.08278022 0.096279323 1.2868609 -0.20337996 -0.87628245 -0.43676737 0.1899735
-0.22950512 -0.30604851 1.5182861 0.53108722 -0.19425917 -0.82474834 0.096216254
-0.077097848 0.10918385 1.2841657 -0.051335748 0.77726007 -0.62708163 0.19519714
-0.11183409 -0.0073711653 1.3389232 -0.21278588 -0.13433215 -0.9678207 0.15267092
-0.10289123 0.057678584 1.3285663 0.28117123 -0.6092093 -0.74148959 0.11288439
-0.23216258 -0.20946993 1.5345505 -0.36559322 -0.86984754 -0.33122042 0.14231704
-0.10186966 0.0092714252 1.3372397 -0.10859825 0.46681958 -0.87765932 0.16108793
-0.067784272 0.13242796 1.2845829 -0.45801997 -0.064627551 -0.88658953 0.26312307
-0.071743034 0.085261382 1.2906643 -0.060406324 -0.94843644 -0.31115824 0.110245
-0.09490113 -0.012418156 1.3343138 -0.10673741 -0.31098583 -0.94440192 0.068906099
-0.22107448 -0.22388305 1.533222 -0.50946003 -0.72634989 -0.46137431 0.17076521
-0.064013258 0.096402057 1.2877679 0.027677983 -0.4996551 -0.86578214 0.19208689
-0.061184384 0.11450008 1.2852104 0.31937695 0.80711919 -0.49654496 0.21449976
-0.21845092 -0.20770341 1.537191 0.27429539 0.95346063 -0.12519935 0.17728391
-0.055458445 0.1385228 1.2895457 -0.84900486 -0.52779222 -0.025021467 0.14027269
-0.084739558 0.015783686 1.3375068 -4.5007571e-05 0.29070702 -0.95681214 0.1647041
-0.10472368 -0.10797649 1.3715392 0.038169213 0.99895388 -0.025183076 0.15599065
-0.20479745 -0.22024387 1.5370036 0.28300872 -0.33661222 -0.89810812 0.18306059
-0.049024191 0.09380918 1.2933413 -0.22621486 -0.93027741 -0.28880903 0.20990516
-0.20278713 -0.23392804 1.5387511 0.35262266 0.28798676 -0.89034873 0.17599262
-0.073631451 -0.050104048 1.3347503 -0.031653635 -0.080345266 -0.99626434 0.095557556
-0.20472614 -0.25547779 1.5439292 0.49993816 -0.1680837 -0.84959382 0.16280569
-0.083532423 0.049203809 1.3524972 0.17610343 0.83384782 -0.52314943 0.16579108
-0.045465816 0.10946143 1.293067 0.30621749 0.91229457 -0.27193648 0.13475618
-0.20695993 -0.27952099 1.5501971 0.48273367 0.021335328 -0.87550724 0.13721704
-0.06549105 -0.021918645 1.3297251 0.41122234 0.89300227 -0.18287431 0.15170754
-0.19018912 -0.21922837 1.5422893 0.30341426 -0.099146314 -0.94768655 0.13990663
-0.057640493 -0.036691073 1.3305804 -0.029615831 -0.26920757 -0.9626267 0.12666413
-0.19074465 -0.24755199 1.5447911 0.53442496 -0.19159137 -0.82321495 0.12452878
-0.069881126 0.041424904 1.3511227 -0.027464261 0.32007468 -0.94699407 0.14627925
-0.18006235 -0.18955305 1.5314735 0.61599422 -0.48489591 -0.62082779 0.16616543
-0.036002997 0.096715257 1.3010217 0.58116037 -0.49850875 -0.64322746 0.24519737
-0.073783539 -0.1258397 1.3640531 -0.18998414 -0.97545427 -0.11133301 0.23457922
-0.18673293 -0.2862156 1.5539755 0.44104707 -0.28516281 -0.85097575 0.095453456
-0.029467707 0.11232498 1.301923 -0.58672738 -0.74343461 -0.32102349 0.23662303
-0.055879802 -0.087638177 1.3476813 -0.08246462 -0.1550708 -0.98445547 0.1610785
-0.17890704 -0.23369186 1.5483624 0.30683398 -0.67907631 -0.66686457 0.19110948
-0.17985561 -0.26358563 1.5517842 0.53331083 -0.10241149 -0.83969724 0.10466915
-0.042658661 -0.036161933 1.3307225 -0.06076828 0.99348497 -0.096409641 0.17796114
-0.054916546 -0.10738727 1.3552107 -0.13380839 -0.41129202 -0.90162867 0.10464943
-0.056886707 -0.12773022 1.3603536 0.1559674 -0.66483665 -0.73052478 0.16366336
-0.024851995 0.095595911 1.3105643 0.5314489 -0.467794 -0.70620865 0.21642259
-0.045297734 0.046093646 1.3501898 -0.0079641603 -0.11876692 -0.99289018 0.1461376
-0.020701708 0.13402449 1.3106672 -0.32843602 0.86110538 -0.38810727 0.15082669
-0.031092688 -0.047141831 1.3329614 -0.012406565 -0.91579604 -0.40145195 0.21813332
-0.17007235 -0.2715781 1.5628033 0.82966036 0.035689365 -0.55712658 0.10054327
-0.16064407 -0.22493902 1.5477486 -0.68439287 0.63436925 -0.35941893 0.21679062
-0.15561633 -0.19388781 1.5398483 -0.36341986 -0.29221767 -0.88461006 0.12432723
-0.038369026 -0.12079505 1.355013 -0.12647748 -0.25573444 -0.95843798 0.12309512
-0.15136498 -0.20934528 1.5442855 -0.14733054 -0.17008024 -0.97435433 0.18857181
-0.030755522 -0.10969776 1.3513772 -0.031258367 -0.2740137 -0.9612177 0.14993154
-0.010615497 0.098422743 1.3202772 0.52006495 -0.090119004 -0.84935921 0.14942114
-0.0088872006 0.12262008 1.3186997 -0.83461255 -0.54678196 -0.066718251 0.19344679
-0.024243999 -0.093352608 1.347603 -0.13118906 -0.19175506 -0.97263533 0.16095115
-0.03111428 -0.13416786 1.3604898 0.1949622 -0.44505471 -0.8740229 0.07672666
-0.022972649 0.040432263 1.3533738 -0.47690418 0.85309577 -0.21163675 0.14946422
-0.013268046 -0.032358453 1.3395747 -0.29946494 -0.73280793 -0.61099368 0.25789702
-0.010160676 -0.046574127 1.3397624 -0.9066928 -0.41773289 -0.058373526 0.14634411
-0.016823366 -0.11094965 1.3527418 -0.22930945 -0.36218172 -0.90346086 0.15925363
0.00050710805 0.1130874 1.3267754 0.58553922 0.78928035 -0.18487917 0.18947418
-0.1550061 -0.28207964 1.5900996 0.95053709 -0.21413569 -0.22500043 0.15395536
-0.006485248 -0.069998875 1.3435137 -0.78044736 -0.59477788 -0.19272047 0.15632097
-0.0025534804 0.086271144 1.3383067 0.33806634 -0.49667934 -0.79938781 0.23265196
-0.0089161517 -0.09633632 1.3510875 -0.13450772 -0.20925452 -0.968566 0.17251755
-0.0054248217 -0.12279129 1.3581634 0.03644244 -0.61754626 -0.78568983 0.14580886
0.0013349785 -0.081213914 1.350932 0.91292202 0.088629089 -0.39839467 0.18885176
0.011081087 0.10214645 1.338815 -0.79426062 0.018201409 -0.60730451 0.26541936
0.004246268 -0.10775379 1.3573623 0.2986238 -0.65760988 -0.69164515 0.2099168
-0.084132932 -0.23787124 1.5165226 -0.49027193 -0.79231596 -0.36313727 0.17076667
0.014983631 -0.069262803 1.3578471 0.76709312 0.20145306 -0.60908526 0.13680586
0.0116122 -0.11841271 1.3638034 0.77236545 0.20431827 -0.60141963 0.14026228
0.0095782159 -0.13325359 1.3723928 0.20182879 0.13228676 -0.97044599 0.23070578
-0.072179295 -0.22991794 1.5165535 0.030136513 -0.97153813 -0.23495829 0.20457001
0.018085798 -0.09584827 1.364238 0.72434789 -0.11857211 -0.67916185 0.13683973
-0.064721242 -0.24076776 1.5212574 -0.53359264 -0.58553082 -0.61027253 0.17430657
0.0275825 -0.11555351 1.3765496 0.80342937 0.45425761 -0.38490418 0.13614742
0.03525852 -0.019260675 1.3718083 -0.75250781 -0.43541679 -0.49410951 0.10847029
0.037651349 0.051191688 1.3697608 -0.79461902 -0.049898509 -0.60505432 0.15950367
0.031106912 -0.12758827 1.3858892 0.90577567 0.31782484 -0.28028142 0.19764087
0.036733188 -0.043170944 1.3824718 -0.58297223 -0.54777271 -0.6000737 0.15540852
0.044029221 0.075841755 1.3716583 0.9669826 0.14431007 -0.2100458 0.14994594
0.052053433 0.05043358 1.3743485 -0.90614676 -0.019537721 -0.42251179 0.1383255
0.05217506 -0.030948091 1.3764458 -0.78478116 -0.54756045 -0.29033795 0.14377832
0.047509946 -0.11111397 1.3952969 0.23159885 0.46864372 -0.8524875 0.15918089
0.050082039 -0.1247506 1.3929797 0.16323695 0.2136579 -0.96317387 0.19627696
0.05016166 -0.082149476 1.3933426 -0.31499526 -0.29224721 -0.90297812 0.13664964
0.052677613 -0.067699455 1.3891641 -0.50636715 -0.31477377 -0.80281371 0.1432866
0.061915573 -0.050581951 1.383396 -0.80031657 -0.52783012 -0.28440934 0.096326299
0.062737808 -0.12713383 1.3983462 0.52731222 0.25792468 -0.80957812 0.21639647
0.066221751 -0.079941362 1.3935318 -0.81776524 -0.44066131 -0.37023985 0.1666268
0.067275271 -0.095197015 1.39512 -0.8858375 -0.076818526 -0.4575924 0.24431783
0.072029419 -0.11682243 1.4010403 0.8468082 -0.33285874 -0.41487464 0.16697766
-0.30230802 0.048384666 1.4887469 -0.29887059 -0.76300669 -0.5731467 0.12858409
-0.29193389 0.014392854 1.5017089 0.99941093 -0.0039327787 0.034093026 0.14767145
-0.37843907 -0.21472563 1.6374012 -0.024267973 0.9051038 -0.4244974 0.081986986
-0.29421699 -0.024546921 1.5197072 -0.87563401 -0.36166626 -0.32009774 0.12754431
-0.18749504 0.0612881 1.3751479 -0.82061428 -0.046691053 -0.56957191 0.14402446
-0.29269657 -0.33579957 1.5727608 -0.59073728 0.7866075 -0.17966083 0.15118785
-0.13541286 0.066089541 1.3333578 -0.92131925 0.06315776 -0.38364297 0.16577077
-0.13195682 0.053056713 1.3346823 -0.84611988 -0.5129531 -0.14477663 0.16165267
-0.25698301 -0.20132245 1.5467827 -0.64841139 -0.7064954 -0.28359622 0.17193444
-0.092499278 0.11230897 1.2983156 -0.96172088 0.22065292 -0.1624973 0.21622206
-0.091830328 0.13579713 1.2974979 0.54199648 0.82662767 -0.15141518 0.2553412
-0.24094547 -0.31040874 1.5287588 0.78782594 -0.42112073 -0.4494305 0.10954829
-0.1274699 0.014932544 1.3542829 -0.29986978 0.29339218 -0.90774399 0.21242732
-0.091312155 0.097225539 1.3001266 -0.53701925 -0.36822885 -0.75895834 0.25252935
-0.23875637 -0.20992789 1.5448685 -0.52888763 -0.7974602 -0.29040492 0.098485589
-0.07895273 0.11463132 1.2970375 0.4524219 0.80436045 -0.38512161 0.16565928
-0.10996728 0.0097228205 1.3499432 0.040278398 0.37424415 -0.92645502 0.15116827
-0.07614094 0.13355872 1.2976995 0.41216204 -0.37639776 -0.82972723 0.22197674
-0.22764941 -0.22438963 1.5435759 -0.54185611 -0.71254808 -0.44572103 0.11932355
-0.072339036 0.097334385 1.3008885 0.71033823 -0.15881358 -0.68570971 0.2650314
-0.098870225 -0.023125058 1.3466498 -0.50663084 -0.85860473 -0.078250296 0.093963765
-0.22478628 -0.20813358 1.5472026 -0.078706719 -0.98168963 -0.1734667 0.13930178
-0.06597209 0.11779638 1.3002535 -0.19445066 -0.9802736 -0.035392962 0.03402577
-0.093430959 0.0033874547 1.3466569 -0.64615542 0.39948392 -0.65030444 0.14670156
-0.21104796 -0.2208378 1.5469567 0.43548387 0.89993566 0.0216706 0.21766812
-0.08169318 -0.029649023 1.343349 -0.20568773 -0.28306901 -0.93678415 0.14028938
-0.056990959 0.094759226 1.306059 0.26706767 -0.61535895 -0.74162549 0.16468899
-0.2089722 -0.23448244 1.5486268 0.77409875 0.4176074 -0.47578898 0.24695058
-0.21086212 -0.2561326 1.5537292 0.74745733 -0.24012046 -0.61939466 0.18066539
-0.053365119 0.1104456 1.3057086 0.18254934 -0.59583086 -0.78208768 0.17678201
-0.21298277 -0.28021723 1.5598317 0.55042136 -0.30134088 -0.77860767 0.19319823
-0.071446359 -0.019037802 1.3420386 0.19078164 0.88071311 -0.43352824 0.19110383
-0.081234425 0.055694465 1.3593271 -0.16730109 -0.028320709 -0.98549896 0.20887487
-0.19611394 -0.21970613 1.5518404 -0.22305186 0.24768436 -0.94281512 0.2555691
-0.077331007 0.042006284 1.3631432 0.068881854 0.27694714 -0.95841306 0.19544923
-0.19709575 -0.25670478 1.5557811 0.4137263 0.1470378 -0.89844888 0.16043672
-0.19321683 -0.23256011 1.5551071 0.7521165 0.50735843 -0.42060471 0.21248004
-0.042978168 0.094676852 1.3152052 0.36659494 -0.74174857 -0.56162024 0.20277825
-0.079115905 -0.12051279 1.3736035 -0.42425179 -0.87883675 -0.21830346 0.18382733
-0.073749617 -0.10214508 1.3666457 -0.064149365 -0.12683809 -0.98984689 0.21076532
-0.19250257 -0.28698745 1.5633337 0.51947939 -0.24960612 -0.81721348 0.12086802
-0.053581972 -0.032341357 1.3424609 -0.34136829 -0.91004717 -0.23512094 0.13487177
-0.050548509 -0.054986756 1.3453072 0.19400895 0.095094115 -0.97637987 0.13769478
-0.17995377 -0.23847191 1.5593978 0.84733164 -0.49756896 -0.18561853 0.25044426
-0.064088866 -0.12796246 1.3721274 -0.0070731118 -0.87120426 -0.49086973 0.20839044
-0.17844842 -0.25534034 1.5647745 0.41234022 0.21386229 -0.88557237 0.19769749
-0.16713035 -0.19898653 1.5488576 -0.90147364 -0.32199284 -0.28925073 0.1204104
-0.051994566 0.046561394 1.3611808 0.091887414 0.86014539 -0.5017038 0.13300422
-0.027824245 0.13500346 1.3223616 -0.38909683 0.90791118 -0.15588726 0.14917721
-0.053200308 -0.11557627 1.3668507 -0.41335422 0.91055059 -0.0059943786 0.19649357
-0.038382985 -0.046965651 1.3449562 -0.075625777 0.039524872 -0.99635255 0.21530993
-0.16604292 -0.2254184 1.5566396 0.73622543 -0.66933054 -0.099843301 0.15212445
-0.15665312 -0.2097968 1.5530342 -0.2838389 -0.60459882 -0.74424177 0.16305882
-0.037626009 -0.10982422 1.3627762 -0.29352906 0.87796897 -0.37816808 0.24451903
-0.017481232 0.099206567 1.3316803 0.63497621 0.23337236 -0.73643905 0.14194188
-0.015661312 0.12349742 1.3299577 -0.37216645 -0.83087701 -0.41368538 0.12613858
-0.03112456 -0.093383595 1.3590548 0.35894406 -0.037253845 -0.93261534 0.17672096
-0.033347543 -0.13413075 1.3714237 -0.090372279 -0.55268705 -0.82847446 0.18504147
-0.016909685 -0.046443362 1.3510697 -0.3784906 -0.3142865 -0.87061411 0.15819907
-0.0060272398 0.11389767 1.3377483 -0.87963933 -0.47475794 -0.028975915 0.12027941
-0.015542928 -0.096462332 1.3622545 -0.038184099 -0.64813411 -0.76056832 0.22229651
-0.014164075 -0.11985695 1.3674548 0.15297213 -0.21068725 -0.96551043 0.13515803
-0.0049148956 -0.063462995 1.3577406 0.72689646 0.36243919 -0.58331764 0.16690616
-0.001339266 -0.087706126 1.3651265 0.59223956 -0.41266203 -0.69207108 0.14097917
-0.0020836124 -0.10791375 1.3681612 0.14830327 -0.76466429 -0.62713212 0.22124343
0.010184241 0.11362459 1.3509625 0.28313562 0.9121927 -0.29620737 0.20786478
-0.089035138 -0.23843342 1.5249157 0.8372606 -0.51653695 -0.17940022 0.23655885
-0.076958477 -0.23044614 1.524804 -0.49597472 -0.28305879 -0.82090616 0.19917549
0.010547509 -0.11212108 1.3760499 0.53879815 0.20348491 -0.8174904 0.16346999
0.026842123 0.12348276 1.3635901 0.64353222 0.75738633 -0.11059969 0.16996829
0.030285973 0.098570205 1.367849 -0.62406373 -0.73116785 -0.27556872 0.18448064
0.032363754 0.051607009 1.3790597 0.025085129 -0.99943298 0.022458572 0.12692782
0.032944798 -0.0088098273 1.3792517 -0.76947027 -0.57028723 -0.2875551 0.094675191
0.025778927 -0.1276765 1.3952812 0.77714545 -0.4395045 -0.45042294 0.21798532
0.031426247 -0.043090444 1.3918483 -0.8249073 -0.46631074 -0.31950319 0.15869403
0.038536794 0.076621197 1.3813665 -0.74529368 0.074981123 -0.6625067 0.1903249
0.042957235 0.063751779 1.3789434 -0.86814976 -0.16226268 -0.46902758 0.11440981
0.046968538 0.050824855 1.3834071 -0.86217391 0.43531525 -0.25914609 0.14664987
0.050994646 0.091163792 1.3842214 -0.94139457 0.33383277 -0.048290126 0.16883789
0.048485622 -0.056607623 1.3950896 -0.25237647 -0.34631234 -0.90353411 0.15784346
0.045180563 -0.082269609 1.4022728 -0.77337188 0.24726322 -0.58374387 0.22957113
0.046245281 -0.10430863 1.405021 0.60831368 -0.12450329 -0.78387082 0.19297892
0.046687014 -0.133617 1.4047796 0.4255116 -0.84452438 -0.32514381 0.15977773
0.052904304 -0.1203243 1.4036946 0.24748686 0.53489226 -0.80786169 0.23238061
0.061510727 -0.080025263 1.4020848 -0.68657368 -0.40922821 -0.60095656 0.21640185
0.061368652 -0.10847948 1.4043121 0.39229488 0.30816567 -0.86668259 0.27694064
0.067904562 -0.096417427 1.4062848 -0.68369973 -0.22828686 -0.69313765 0.19512588
-0.29715464 0.014655687 1.5094774 0.18197145 0.49193347 -0.85140353 0.21394336
-0.38794696 -0.21559098 1.651584 -0.077815235 0.99686897 -0.014039367 0.05622261
-0.29979911 -0.024379032 1.5280628 -0.97799772 -0.011314629 -0.20830838 0.14278322
-0.1888459 0.061343089 1.3771843 -0.90190625 -0.033809505 -0.43060654 0.16104172
-0.37206045 -0.20364091 1.6575423 0.24539889 -0.96614021 -0.079703346 0.048902549
-0.29922146 -0.33696502 1.5827357 0.74894452 -0.66239607 -0.017706949 0.1082088
-0.26565787 -0.18210989 1.5584428 -0.8831172 -0.39379981 -0.25500143 0.12670285
-0.26253718 -0.20180687 1.5553787 -0.62713706 -0.7060824 -0.32885689 0.1620992
-0.1202824 0.051495194 1.337924 -0.65703928 -0.73598289 -0.16318257 0.23606858
-0.24581097 -0.31117827 1.536307 0.94359374 -0.33000633 0.026957117 0.13969369
-0.23938563 -0.21877092 1.5515894 -0.30106157 -0.93007445 -0.21053135 0.21027762
-0.22988111 -0.20853819 1.5552527 -0.049604669 -0.97387373 -0.22160639 0.097939074
