# .PCD v0.7 - Point Cloud Data file format
VERSION 0.7
FIELDS x y z normal_x normal_y normal_z curvature
SIZE 4 4 4 4 4 4 4
TYPE F F F F F F F
COUNT 1 1 1 1 1 1 1
WIDTH 581
HEIGHT 1
VIEWPOINT 0 0 0 1 0 0 0
POINTS 581
DATA ascii
-0.037857026 0.0031513341 1.701508 -0.2088773 -0.77900648 -0.59120136 0.11380358
-0.01065318 -0.05601991 1.7049484 -0.99705565 -0.015805317 -0.075035587 0.23281749
-0.011120713 -0.054776751 1.7043501 -0.96783358 -0.16236567 -0.19218604 0.16715302
-0.015878301 -0.040361889 1.7000737 -0.92210895 0.12674864 -0.36558154 0.066056758
-0.012088166 -0.059365667 1.7010897 -0.24253304 0.81740296 -0.52252287 0.21664511
-0.015841493 -0.042768855 1.698997 -0.86065537 0.27006975 -0.43166512 0.11645501
-0.017313259 -0.044688173 1.6961743 -0.51765323 0.024786308 -0.85523134 0.16046163
-0.014621072 -0.066411763 1.6913173 -0.37357932 0.18995202 -0.90794092 0.10736787
-0.021826981 -0.026762882 1.6737144 0.74090707 0.6332587 -0.22369686 0.15461652
0.0058447332 -0.04651884 1.6866897 0.62587416 0.14094098 -0.76708353 0.057271112
0.00063993107 -0.010107983 1.6772586 -0.64996797 -0.25723308 -0.71510333 0.1695535
0.00034386924 -0.011618041 1.6771808 -0.65167361 -0.4566741 -0.60561562 0.16582835
-0.006519842 0.0013548733 1.6777753 -0.55625695 0.37610823 -0.74102676 0.21275058
0.013125207 -0.029757315 1.7038629 0.74388731 0.0021863636 -0.66830158 0.026537413
0.012857399 -0.028735045 1.7033346 0.70988923 0.017846111 -0.70408714 0.028155228
0.012368207 -0.03293407 1.7020904 0.73834568 0.018423727 -0.67417085 0.019209439
0.011882535 -0.03191416 1.7020938 0.73834562 0.018423697 -0.67417079 0.019209394
0.011515176 -0.054404397 1.7031699 0.71625203 -0.1778236 -0.67480499 0.15202783
0.010443299 -0.033660121 1.6994705 0.73834586 0.018423727 -0.67417067 0.019209366
0.0098859239 -0.033240367 1.6989169 0.73834574 0.018423738 -0.67417073 0.019209417
0.0086098043 -0.048881907 1.699472 0.80653292 -0.063456841 -0.58777374 0.014921054
0.0095910309 -0.058285069 1.6996348 0.13018571 -0.83968818 -0.52723372 0.12523489
0.0086830007 -0.055228062 1.6993353 -0.087800078 -0.33715326 -0.9373467 0.19294737
0.0083411522 -0.051632468 1.6989638 0.8065328 -0.063456811 -0.5877738 0.014921054
0.0070026428 -0.051829122 1.6980672 -0.19227919 -0.027319554 -0.98095989 0.20563713
0.0066535692 -0.054630123 1.6975335 0.067668319 -0.82206035 -0.5653652 0.11559524
0.0069981236 -0.059157915 1.6967311 0.13018593 -0.83968824 -0.52723366 0.12523495
0.0041186442 -0.048229817 1.6943997 0.5040713 0.0019382834 -0.86365986 0.066145107
0.0031815309 -0.044927619 1.6935724 0.5332607 0.023556178 -0.84562296 0.057525989
0.0030918736 -0.05028988 1.6933578 0.41339111 -0.3302744 -0.84854376 0.062491126
0.0031784845 -0.056280568 1.6928476 0.40169767 -0.44308373 -0.80144608 0.057519995
0.002840098 -0.057341848 1.69215 0.44264969 -0.39079854 -0.80705494 0.055048298
0.0004050117 -0.046409734 1.6899328 0.43111315 -0.066954792 -0.89981031 0.049028996
0.00095161353 -0.055513863 1.6902488 0.46890932 -0.32873473 -0.81979114 0.072867736
-0.0079071214 0.0006301243 1.6821849 0.42512068 0.48010528 -0.76731431 0.18291527
-0.0079122521 -0.00046661258 1.6818541 0.43431753 0.20489173 -0.8771475 0.22758925
-0.0045889341 -0.011861244 1.6817871 -0.94975978 0.15447189 -0.27220377 0.16573644
-0.0045427703 -0.011310874 1.6814722 -0.9524473 0.01579207 -0.30429399 0.14548646
-0.0097540645 0.001408442 1.679835 0.72399336 0.1731142 -0.66773129 0.23672858
-0.0089534111 -0.015752768 1.6801219 -0.54972321 0.78766835 -0.2781781 0.11991221
-0.010477659 -0.017006563 1.6776855 -0.96328121 0.13391146 -0.23271661 0.1041368
-0.0058184327 -0.051394776 1.6785626 0.95136338 -0.02408739 -0.30712774 0.118539
-0.01009789 -0.020506177 1.6763707 -0.62929779 0.61813897 -0.47105047 0.28040519
-0.0087540178 -0.038930032 1.6756327 0.91598392 -0.30279696 -0.26322523 0.081667267
-0.011059248 -0.034840323 1.6724546 0.64776635 -0.17762943 -0.74084181 0.071342506
-0.018196231 0.0093363123 1.6696751 -0.09155266 -0.97947252 -0.17958783 0.092425056
-0.019433627 0.009351261 1.6680461 0.11520331 -0.98263073 -0.14548191 0.11642192
-0.022130754 0.0090057701 1.6644682 0.0053038299 -0.9929958 -0.11803042 0.071336597
-0.013698591 0.0081264302 1.6691811 -0.023431834 -0.76310694 -0.6458472 0.05378522
0.00062749191 0.0077141752 1.6798241 -0.57448661 0.81587964 -0.065616891 0.20119093
0.035803411 -0.03147034 1.6751252 0.11635138 -0.077242285 -0.99019998 0.0016337738
0.035504308 -0.030399065 1.6750566 0.11634943 -0.077241696 -0.99020022 0.0016334548
0.034632612 -0.029266315 1.6746706 0.11635122 -0.077242248 -0.99019998 0.0016338004
0.034211941 -0.032791846 1.6745962 0.11635134 -0.077242285 -0.99019998 0.0016337738
0.033019606 -0.025437092 1.6748087 -0.3942802 0.075993933 -0.91584283 0.0067092832
0.032232929 -0.022886094 1.6746062 -0.10891132 0.020672562 -0.99383646 0.030183684
0.033410296 -0.033640068 1.674356 0.11634946 -0.077241696 -0.99020022 0.0016334283
0.031217113 -0.024654189 1.6744539 -0.19691709 0.033575423 -0.97984511 0.025148017
0.030979726 -0.026123725 1.6743379 -0.3942802 0.075993948 -0.91584283 0.0067093275
0.031097412 -0.032919798 1.6741164 0.11635122 -0.07724224 -0.99020004 0.0016338004
0.03035849 -0.033904422 1.6735742 0.11635128 -0.07724227 -0.99019998 0.0016338004
0.029780412 -0.030971367 1.6736718 0.11635122 -0.077242225 -0.99019998 0.0016338004
0.029685268 -0.035007756 1.6735919 0.11635122 -0.077242233 -0.99019998 0.0016338004
0.029030982 -0.033890031 1.6735255 0.1163486 -0.077241443 -0.9902004 0.0016332688
0.027158139 -0.053525209 1.6758581 -0.42079997 0.11359406 -0.90001321 0.0087390421
0.026076041 -0.054874197 1.6757822 -0.53657281 0.15984155 -0.82857722 0.010952437
0.024948208 -0.056413304 1.6756507 -0.63625294 0.16857362 -0.75283808 0.017297793
0.023919137 -0.051911462 1.6756672 -0.42080018 0.11359415 -0.90001315 0.0087391492
0.023458406 -0.054185592 1.6757511 -0.57541269 0.16775168 -0.80047464 0.011023988
0.02171931 -0.059403487 1.6751978 -0.71021861 0.11213535 -0.69499296 0.040481623
0.020570248 -0.060373697 1.6748936 -0.64869308 -0.048983537 -0.75947213 0.10466614
0.019794175 -0.058973029 1.6749657 -0.64869308 -0.048983481 -0.75947213 0.10466604
-0.0022125312 0.0037878777 1.6686698 -0.15544383 0.76501298 -0.62497383 0.15328014
-0.0018789642 -0.013648407 1.6696118 0.76179862 -0.6244688 -0.17234184 0.17053275
-0.0031417273 -0.018157655 1.6689439 0.89228833 -0.44375315 -0.083094992 0.092332236
-0.0040231133 -0.017066564 1.6687127 0.84426004 -0.50489902 -0.1797273 0.091789894
-0.0050736121 -0.015152354 1.6690983 -0.64729303 -0.23602328 -0.72477907 0.23468736
-0.028919199 -0.0015061725 1.6602231 -0.61543095 -0.16195749 -0.77137184 0.077814892
-0.025670234 0.0046003195 1.6575019 -0.52753061 0.11603802 -0.84157389 0.16141121
-0.024157099 0.0042077051 1.6569682 -0.24174547 0.17574057 -0.95429265 0.17887442
-0.03086387 -0.027144529 1.6730545 -0.15219845 -0.10015939 -0.98326182 0.11447819
-0.029883673 -0.023556432 1.6718386 -0.16245009 0.27107009 -0.94875234 0.16269071
-0.029686017 -0.022337491 1.6717873 0.15925634 -0.51304364 -0.84345937 0.17021197
-0.029808981 -0.025181435 1.6724519 -0.065626048 -0.23096167 -0.97074711 0.17421392
-0.029169289 -0.026576707 1.6727906 -0.011407788 -0.14034945 -0.99003637 0.16827977
-0.027104517 -0.048496567 1.6736726 0.58045608 -0.078913979 -0.81045872 0.14457461
-0.02633116 -0.06327302 1.6756655 0.0041987258 -0.19948706 -0.97989148 0.036240164
-0.025863208 -0.046038423 1.673424 0.085809581 -0.16157791 -0.98312217 0.15253398
-0.025100531 -0.056403473 1.6735206 -0.28169021 -0.3341983 -0.89942318 0.15044922
-0.025242876 -0.054253925 1.6736294 0.85076779 0.16619244 -0.49857238 0.16803603
-0.025953991 -0.04356942 1.6739784 0.48568118 -0.06299863 -0.87186289 0.11571313
-0.025382169 -0.051350832 1.6739496 0.57466447 0.014924944 -0.81825304 0.22668125
-0.024286125 -0.027056921 1.670408 -0.5341422 0.67742789 -0.50575048 0.23513749
-0.024827795 -0.039747398 1.6733892 -0.80075318 -0.40390545 -0.44232887 0.21913363
-0.024826964 -0.043632183 1.6739967 0.5413115 -0.12464333 -0.8315323 0.12148245
-0.023654243 -0.056734681 1.6738479 -0.077502757 0.088144153 -0.99308813 0.14028703
-0.022691546 -0.034544721 1.6704103 0.14275324 0.066990457 -0.98748869 0.078120627
-0.022525897 -0.067546256 1.6761554 0.27141407 -0.76483065 -0.5842675 0.064807922
-0.022312311 -0.066481233 1.6757733 0.11291073 -0.32197151 -0.93999231 0.028665852
-0.021686217 -0.057696655 1.673952 0.13881794 -0.12712121 -0.98212516 0.037574973
-0.02083963 -0.048236832 1.6734824 0.15671071 -0.97362357 -0.16582797 0.22855672
-0.020763397 -0.067817234 1.6769842 0.19440763 -0.82775432 -0.52633506 0.087537542
-0.019639418 -0.045734685 1.6733601 -0.78863692 -0.29890686 -0.53731424 0.16694957
-0.019611845 -0.054264851 1.6746397 0.57937998 -0.60050076 -0.55110586 0.22361906
-0.020038906 -0.065160349 1.6768723 0.12537122 -0.31064081 -0.94222307 0.045001369
-0.019609056 -0.066819258 1.6767555 0.16906847 -0.67482823 -0.71834725 0.10268421
-0.018833453 -0.065401703 1.6774279 0.22938548 -0.55345637 -0.80066752 0.12582776
-0.017683711 -0.048791725 1.6739429 0.45574117 -0.25267988 -0.85349452 0.22465661
-0.016908355 -0.055035546 1.6749233 0.30278111 -0.49858674 -0.8122406 0.1711868
-0.016587971 -0.050135713 1.6743938 0.89338368 0.43111271 -0.12652037 0.16523026
-0.016601937 -0.061313804 1.6759192 0.47896177 -0.25409755 -0.84025604 0.15134963
-0.016475853 -0.053891059 1.6751543 0.55696702 -0.09820722 -0.82470781 0.19771338
-0.016569041 -0.058495495 1.6759471 0.74724019 0.076581255 -0.66012681 0.10752047
-0.016285202 -0.052264545 1.6747345 0.8704685 0.35025522 -0.34584075 0.18728565
-0.016924204 -0.066786222 1.6781425 0.35788208 -0.81245261 -0.46026206 0.10762826
-0.016089553 -0.047464482 1.6745236 0.7930631 -0.48789611 -0.36470306 0.17905055
-0.016071429 -0.050951004 1.6751242 -0.93733442 -0.33546698 -0.094159417 0.17447986
-0.014869941 -0.044137139 1.6741896 0.50270993 -0.67775953 -0.53658617 0.19524969
-0.014453073 -0.041503109 1.6734954 0.68174791 -0.12144057 -0.72143745 0.043469541
-0.015705081 -0.065643154 1.6792861 0.55692023 -0.70078576 -0.44580176 0.16659404
-0.014768617 -0.053307179 1.6762564 0.6590631 -0.094633125 -0.74611014 0.14968474
-0.01474064 -0.055286825 1.676487 0.48825964 -0.29674011 -0.82069957 0.10212345
-0.014768944 -0.057570621 1.6769632 0.48676842 -0.23583885 -0.84109247 0.11419072
-0.01559196 -0.067208059 1.6797214 -0.18128137 0.98306763 -0.026738655 0.075613216
-0.014267277 -0.042776652 1.6743468 0.65298569 -0.30601642 -0.69279414 0.079878367
-0.010493339 -0.017937228 1.6658194 -0.6385957 -0.70969743 -0.29753169 0.19580834
-0.013318473 -0.046237681 1.674468 0.61824548 -0.30758333 -0.72330147 0.091718391
-0.014604453 -0.066446073 1.680433 -0.42915854 0.90280676 -0.027621983 0.12861541
-0.013490778 -0.062148012 1.6783688 0.58893621 -0.35757539 -0.72477168 0.074777298
-0.01330681 -0.061341647 1.6780285 0.5969426 -0.075414866 -0.79873157 0.047993287
-0.014438005 -0.065200664 1.6805997 0.64255542 -0.49654263 -0.58358192 0.16046976
-0.014129682 -0.063222818 1.6798772 0.25475281 -0.60886329 -0.75125659 0.20314135
-0.012740268 -0.043995008 1.6750169 0.6077379 -0.2917363 -0.73860991 0.10652328
-0.01294823 -0.05182251 1.6770232 0.61114365 -0.10233248 -0.78487676 0.049232043
-0.012154693 -0.038846742 1.6748186 0.82960415 -0.18789536 -0.52578729 0.10057346
-0.013864604 -0.065188378 1.6812048 -0.70761728 0.42789769 -0.56230015 0.25772151
-0.012088598 -0.041031804 1.6751901 0.71618605 -0.14881527 -0.68185896 0.077419773
-0.012278294 -0.053232782 1.677295 0.61667633 -0.02906218 -0.78668016 0.058843076
-0.012238665 -0.046997186 1.6768392 0.39817888 -0.31263757 -0.86238706 0.20267557
-0.013345863 -0.064149499 1.6813371 0.94535607 -0.32557672 -0.017372794 0.16411904
-0.011229288 -0.039964657 1.6751778 0.85415661 -0.31426099 -0.41431454 0.098724149
-0.011786953 -0.050628472 1.6775925 0.57687837 -0.10937675 -0.80947393 0.071950056
-0.01160615 -0.041655887 1.6762751 0.90380561 -0.21808077 -0.36820698 0.10756255
-0.0073216185 -0.0037590361 1.6643325 0.52937603 -0.13816477 -0.83706123 0.15122746
-0.011300103 -0.045435764 1.6768956 0.84829682 -0.21181709 -0.48531008 0.12513405
-0.011639969 -0.062347498 1.6797034 0.97658104 0.0016416593 -0.21514362 0.15952171
-0.0068741478 -0.00055566366 1.6642557 0.094853155 -0.4895528 -0.86679924 0.15739071
-0.011150438 -0.048254076 1.6781074 0.63352025 0.31699553 -0.7058087 0.16540395
-0.0069650868 -0.0056158276 1.6657623 0.89156681 -0.41679558 -0.17717218 0.10854305
-0.010096979 -0.038888369 1.6760938 0.91752911 -0.25910795 -0.30166772 0.087104917
-0.010449165 -0.054383826 1.6793191 0.46277779 -0.2528275 -0.84965581 0.028585948
-0.0099298852 -0.059957694 1.6808261 0.99505407 0.033939905 -0.093355834 0.13304262
-0.0090788379 -0.05928364 1.6821749 -0.99451739 -0.064975761 -0.081935339 0.085571498
-0.0032241198 -0.016122364 1.6695982 -0.88387203 0.27927017 -0.37520456 0.17005719
-0.0031678865 -0.0062938556 1.6696233 0.90310168 -0.403191 -0.1477982 0.11548957
-0.0027077268 -0.013724343 1.6700237 0.23115158 0.48444965 -0.84372842 0.17888924
-0.0026603288 -0.016461197 1.670328 -0.80074865 0.44521803 -0.40072754 0.13118531
-0.0010076112 -0.011536733 1.6713198 0.41749427 0.5510993 -0.72248745 0.14435455
0.00057135586 -0.01260384 1.6725104 0.54811633 0.56196642 -0.61948556 0.1418118
0.00066072296 -0.010428729 1.6726608 0.69833893 0.53658468 -0.47370833 0.14786555
0.0010531932 -0.013514463 1.6733836 0.94163996 -0.18854636 -0.27886266 0.1964446
0.0010547527 -0.01134388 1.6740594 0.48466131 0.85109758 -0.20183225 0.19100298
0.0021456745 0.0077087292 1.6734413 0.16372566 -0.98179835 -0.096259773 0.1293712
0.0048037898 0.0069409842 1.6730112 0.19494715 -0.97161818 -0.13399114 0.10797639
-0.02837779 -0.068425626 1.6886922 -0.6742723 -0.19332042 -0.71273005 0.15351224
-0.027244596 -0.06533099 1.688705 -0.52451384 0.51185596 -0.68035924 0.15489262
-0.012166475 -0.017364834 1.672206 0.62106347 -0.57299042 -0.53475428 0.16410691
-0.01685079 -0.05401234 1.6910995 0.072822146 0.36191872 -0.92936093 0.24901696
-0.026971633 -0.044825669 1.6735348 0.30893177 -0.20242399 -0.92929304 0.10575812
-0.026217666 -0.053681895 1.6740788 0.78416264 -0.068598665 -0.61675209 0.20769501
-0.026554251 -0.046027735 1.6738529 0.49474153 -0.22097802 -0.84047586 0.11902609
-0.026276406 -0.043845896 1.6737065 0.48568109 -0.062998623 -0.87186301 0.11571307
-0.025881508 -0.048764199 1.6738751 0.83738762 -0.092767641 -0.5386799 0.17890885
-0.025591053 -0.050489411 1.6740049 0.7656545 0.046008613 -0.6416046 0.20184301
-0.025708515 -0.036637053 1.6760802 0.79023093 0.55247653 -0.2651504 0.10730292
-0.024857713 -0.055550881 1.6744896 -0.40998125 -0.19948323 -0.89001232 0.19332717
-0.025220837 -0.040192317 1.6744881 0.89948183 0.10075313 -0.42518389 0.12089216
-0.024961751 -0.04362784 1.6742339 0.54131138 -0.12464333 -0.8315323 0.12148238
-0.024333432 -0.037461657 1.6764493 0.61277544 0.57126981 -0.54603755 0.10159074
-0.023329746 -0.05178744 1.6754339 -0.75874013 0.41912153 -0.49864861 0.16705951
-0.023418071 -0.041877642 1.6753392 0.74794519 0.16329888 -0.64335966 0.084848791
-0.022755492 -0.038557488 1.6770564 0.61679816 0.26244089 -0.7420814 0.11869501
-0.023294101 -0.0083634537 1.6812624 0.23721796 0.032773241 -0.97090352 0.062353004
-0.021646984 -0.047133021 1.6764896 -0.34978181 -0.35392293 -0.86740482 0.16844064
-0.021371683 -0.0488551 1.6761949 -0.15604593 0.85653919 -0.49192503 0.21240078
-0.021703674 -0.038041729 1.6774217 -0.066723324 -0.61384249 -0.78660369 0.25725248
-0.022482263 -0.011191974 1.6814897 0.1279926 0.041350536 -0.99091274 0.043116026
-0.022208648 -0.007555462 1.6816801 0.25506148 0.057187881 -0.96523219 0.062987424
-0.020441297 -0.04668073 1.676975 0.18077153 -0.23143828 -0.95590693 0.21198098
-0.020218404 -0.041356008 1.6776116 0.5408209 0.32256043 -0.77683169 0.17389053
-0.019713169 -0.049311552 1.6769345 0.71181601 0.57905382 -0.39751053 0.18849017
-0.020145871 -0.038323764 1.6777675 0.65802449 -0.093948588 -0.74711269 0.21250145
-0.021281818 -0.0065959394 1.6821343 0.32506675 0.0075703417 -0.94566083 0.038303804
-0.021127088 -0.0095054433 1.6819659 0.20391683 0.13642502 -0.96943599 0.043113876
-0.02007333 -0.03598405 1.6787467 0.19181882 0.49038449 -0.85013437 0.21751133
-0.02113786 -0.0050203009 1.6822023 0.46044397 -0.050286628 -0.88626325 0.0429339
-0.019520305 -0.044062953 1.6773686 0.47820297 0.4170419 -0.77291524 0.16124989
-0.018458977 -0.066507384 1.6755856 0.079373091 -0.26305509 -0.96151024 0.050694544
-0.018929735 -0.050315741 1.6771212 -0.88573819 -0.46041316 -0.059055131 0.16606437
-0.020060198 -0.012802335 1.6822776 0.13093761 -0.025719568 -0.99105692 0.047681291
-0.019739989 -0.014750055 1.6823194 0.31041259 0.027656212 -0.95019954 0.13744816
-0.018509872 -0.048904303 1.6772103 0.8211332 0.4417091 -0.36143228 0.18630645
-0.017846994 -0.065275237 1.6756479 0.17137721 -0.31319374 -0.93409818 0.07915362
-0.019478375 -0.018355815 1.6821456 -0.27560213 0.11146774 -0.95478714 0.12497709
-0.019858534 -0.008995913 1.6823945 0.20391683 0.13642503 -0.96943593 0.043113876
-0.019759908 -0.0068371296 1.6826046 0.32506675 0.007570337 -0.94566077 0.038303804
-0.018407669 -0.043040268 1.6776614 0.34792191 0.42972779 -0.83323729 0.22952105
-0.018400712 -0.038357794 1.6782001 0.11031889 0.21285175 -0.9708367 0.1073745
-0.019282319 -0.010588486 1.6823934 0.21753851 0.13719355 -0.9663617 0.045798466
-0.019479465 -0.0019756753 1.6838908 0.13831472 -0.18559667 -0.97284269 0.097121291
-0.018815687 -0.015808022 1.6823971 0.61545825 0.12267715 -0.77856374 0.19287659
-0.016884528 -0.063104279 1.6764653 0.25747803 -0.053696677 -0.964791 0.10958694
-0.016737241 -0.067111045 1.6759083 0.2150467 -0.5999009 -0.77063215 0.10612602
-0.01915054 5.3724376e-05 1.683984 -0.67360145 0.48236981 -0.5599826 0.19625971
-0.017441178 -0.045235053 1.6778262 -0.73906553 0.1036222 -0.66561598 0.24109602
-0.017309949 -0.048647474 1.6774312 -0.96362191 0.060934853 -0.2602303 0.15407093
-0.01859118 -0.012687508 1.6824355 0.21800765 -0.10382064 -0.97040915 0.11629835
-0.016789321 -0.056120124 1.6771008 0.30087698 -0.35132605 -0.88659066 0.17055883
-0.017989101 -0.016940022 1.6823902 0.2761662 0.27440813 -0.92110395 0.18953583
-0.016075345 -0.064426117 1.6763461 0.27598858 -0.2098019 -0.93798363 0.084590293
-0.018183375 -0.0093384096 1.6828185 0.24150841 0.16186097 -0.95680445 0.041386917
-0.016300332 -0.057633542 1.6769918 0.43926573 -0.20747043 -0.87407184 0.12024412
-0.015824104 -0.066678464 1.6761633 0.40628606 -0.51004392 -0.758147 0.13166219
-0.017061519 -0.022999413 1.6819105 -0.65188581 -0.19688199 -0.73231298 0.16397151
-0.017316921 -0.015708767 1.6826117 0.27616614 0.2744081 -0.92110395 0.18953587
-0.017337028 -0.014078157 1.6826217 0.60776395 -0.071099095 -0.79092854 0.16714852
-0.017355278 -0.01288036 1.6827054 0.43431586 -0.092891105 -0.89595813 0.13868634
-0.017752541 -0.0014706372 1.6839436 -0.10426566 -0.35771421 -0.92799205 0.12460382
-0.017422184 -0.0060822652 1.6835431 0.1599666 -0.059909511 -0.98530275 0.070389248
-0.015512444 -0.046440791 1.6784657 -0.26131311 -0.3603386 -0.89547276 0.21971133
-0.01709928 -0.0030026727 1.6839297 0.087615088 -0.040301289 -0.9953388 0.074540213
-0.014907603 -0.057624258 1.6772318 0.48676845 -0.23583893 -0.84109235 0.11419076
-0.016223582 -0.013623752 1.6829801 0.31253198 -0.2120744 -0.92593092 0.13499653
-0.014587718 -0.056494012 1.6773806 0.34945646 -0.24865934 -0.90335423 0.10228179
-0.016262326 -0.01111485 1.6829957 0.31981376 0.11559556 -0.94040245 0.055707309
-0.016171165 -0.0067945318 1.6836642 0.10648959 0.028139895 -0.9939155 0.040487878
-0.01549279 -0.017066788 1.6830497 0.083065286 0.6270597 -0.7745297 0.14357391
-0.015203518 -0.015279765 1.6832309 0.43610573 0.30880636 -0.84525168 0.18261334
-0.014675153 -0.023996094 1.6823678 0.50110608 -0.40919676 -0.76252919 0.22835867
-0.0129323 -0.063061178 1.6771914 0.58144587 0.027791981 -0.81311023 0.070515104
-0.013108639 -0.057016365 1.6776973 0.47575805 -0.12373588 -0.87082928 0.046906412
-0.0141486 -0.025214106 1.6822948 0.23152006 -0.71157062 -0.6633746 0.1677139
-0.012664799 -0.065830693 1.67633 0.57989627 -0.36591306 -0.72789282 0.12959968
-0.014045499 -0.01858099 1.683261 -0.046415415 0.56870705 -0.82122952 0.13099164
-0.014234385 -0.013536862 1.6835257 0.011661069 -0.10543052 -0.99435824 0.14632106
-0.012292705 -0.058320686 1.6776905 0.58285445 -0.015576083 -0.81242734 0.022401087
-0.013435302 -0.022693396 1.6827987 0.21259044 -0.3198429 -0.92331237 0.14189956
-0.012738655 -0.017076982 1.683617 -0.20782429 0.5448001 -0.81240511 0.14775383
-0.016953306 -0.0067791743 1.7030563 -0.47189265 -0.32506409 -0.81954294 0.096476041
-0.015632683 -0.0076892627 1.7031995 -0.70538044 -0.17373057 -0.68720889 0.069736943
-0.014820338 -0.060122825 1.677188 0.46222544 0.14276092 -0.87519538 0.075740591
-0.014021946 -0.012207066 1.701913 -0.74050993 0.07944867 -0.66733271 0.11390362
-0.013685746 -0.061561849 1.6771033 0.57754755 -0.14487231 -0.80339956 0.049821589
-0.013829006 -0.054391339 1.678465 -0.0094224084 0.23545241 -0.97184026 0.20687538
-0.012690392 -0.015203125 1.7017425 -0.71562767 0.27829337 -0.64064801 0.075487785
-0.011758147 -0.012557581 1.7020519 -0.79159683 0.060536124 -0.60803765 0.1044635
-0.011319271 -0.017731264 1.7007548 -0.67638767 0.37067759 -0.63647294 0.079817519
-0.035087682 -0.010279215 1.6650335 -0.86313367 0.49873486 -0.079144157 0.17501947
-0.032164294 -0.0073015457 1.6670557 -0.48217142 0.83522749 -0.26439711 0.11138701
-0.028797183 -0.017625285 1.667393 0.41025987 -0.43444419 -0.80183858 0.12021598
-0.02765671 -0.014772281 1.6678526 0.13671078 0.84849524 -0.51123959 0.19285901
-0.029561022 -0.048940808 1.6702108 -0.15058655 -0.02599596 -0.98825496 0.10806788
-0.029740931 -0.046387546 1.6703149 -0.040142249 -0.014783808 -0.99908465 0.11721589
-0.024999039 -0.013976788 1.6689898 0.13724615 -0.79545134 -0.59027159 0.13537337
-0.026531842 -0.053288564 1.6712898 -0.13320707 -0.051343292 -0.98975736 0.092280924
-0.023968337 -0.012929679 1.6695111 -0.057275333 -0.81970412 -0.56991643 0.060592357
-0.026350066 -0.051157802 1.6715152 0.052509733 -0.13652205 -0.9892444 0.13720025
-0.023325944 -0.01460978 1.6698006 0.15025017 -0.62146401 -0.7689001 0.088494092
-0.023297375 -0.015875287 1.6698147 0.13156813 -0.57287669 -0.80901313 0.091339514
-0.025800494 -0.047373101 1.6717757 0.14760093 0.097947292 -0.98418504 0.11753953
-0.022748718 -0.017322451 1.6701094 0.51592898 0.002017993 -0.85662901 0.1070267
-0.021126181 -0.022871567 1.6711774 0.61490452 -0.20031975 -0.76273489 0.17744617
-0.020739824 -0.020125935 1.67127 0.13948576 -0.018482683 -0.99005157 0.18311885
-0.020723529 -0.015227024 1.6711814 -0.035254963 -0.78297818 -0.62104934 0.096245937
-0.019809196 -0.018434912 1.6717378 -0.078764103 0.02487026 -0.99658304 0.16180855
-0.019748554 -0.016266067 1.6717535 -0.020273712 -0.51809222 -0.85508448 0.11813731
-0.019456953 -0.014019982 1.6719666 0.098503485 -0.56097502 -0.82195145 0.076627843
-0.018692281 -0.017734934 1.6724297 0.002178269 -0.36974692 -0.9291299 0.1453495
-0.018435417 -0.051715814 1.674807 0.45755273 -0.056019858 -0.88741606 0.22493586
-0.015572895 -0.0085619427 1.674154 0.96066386 0.13655142 -0.24182385 0.071639739
-0.015575813 -0.0063672569 1.6741604 0.99697256 0.041024595 -0.066050418 0.106114
-0.015000691 -0.016357999 1.6743054 0.47743386 -0.080561116 -0.8749668 0.17902403
-0.013817853 -0.058928292 1.6776583 0.33663428 -0.065096073 -0.93938267 0.066593908
-0.011346539 -0.0067994599 1.6768129 0.6213513 -0.16251731 -0.76649243 0.25540519
-0.012372509 -0.062045455 1.6784314 0.73233908 -0.23599911 -0.63873613 0.12549956
-0.012416898 -0.065775834 1.679003 0.6425553 -0.49654278 -0.58358204 0.16046986
-0.011874733 0.0017239213 1.6775539 0.70097464 0.033325739 -0.71240711 0.19552876
-0.011021866 -0.060829528 1.679239 0.84406883 -0.077789955 -0.53056258 0.12584782
-0.010917281 -0.066123717 1.6800369 0.69617432 -0.44598001 -0.56253278 0.16011238
-0.010500655 -0.064827129 1.6802808 0.88691145 -0.37664437 -0.26744533 0.18416259
-0.021316294 -0.011973244 1.6586136 0.19890441 0.9200933 -0.33743927 0.079037957
-0.021546217 -0.015172918 1.6592408 -0.7707144 -0.28058061 -0.57207853 0.1028423
-0.019778438 -0.010392653 1.6594356 0.033138894 0.85355151 -0.51995349 0.06460616
-0.016036538 -0.014118254 1.6623122 -0.27674666 -0.22317716 -0.93466741 0.13839374
-0.016025323 -0.0114344 1.6623337 -0.12874225 -0.23610646 -0.96316105 0.14778899
-0.01578176 -0.010165267 1.6624523 -0.029589145 -0.26980552 -0.96246016 0.17021139
-0.014076914 -0.013022419 1.6635847 -0.1888206 -0.49208179 -0.84982491 0.20246486
-0.013834517 -0.011715294 1.6637282 -0.25285661 -0.566513 -0.78430003 0.16328487
-0.012737778 -0.013667844 1.6645656 -0.62585777 -0.41246954 -0.66194481 0.17700857
-0.013245233 -0.01082453 1.6647874 -0.14220469 -0.79634154 -0.58789295 0.13343993
-0.020274736 -0.060595188 1.6712598 -0.1754168 -0.29519975 -0.93919444 0.12423394
-0.018946858 -0.060258254 1.6717725 0.12619515 -0.20955475 -0.96961933 0.16562295
-0.018644532 -0.05552052 1.6721748 0.038471114 -0.066015556 -0.99707669 0.10453954
-0.018373184 -0.056819465 1.6726574 0.064993113 0.10150197 -0.99271005 0.12486367
-0.017632639 -0.059136998 1.6730444 0.59094226 -0.084765621 -0.80224806 0.14776479
-0.017570138 -0.060605507 1.6732274 0.57507479 -0.32032788 -0.75278091 0.12239319
-0.016679708 -0.054324929 1.6736549 0.46826184 0.012077966 -0.88350725 0.10792273
-0.015944546 -0.04288993 1.673202 0.50787115 -0.28566167 -0.81268954 0.027395943
-0.0082683936 -0.0095309354 1.6696086 0.064298414 0.19639829 -0.9784137 0.17965399
-0.0079278881 -0.007846375 1.669933 0.57627386 0.5345645 -0.61818224 0.19102836
-0.016094454 -0.061163288 1.6749917 0.44036138 -0.20024571 -0.87520486 0.064607024
-0.014894769 -0.044209242 1.6742402 0.50270939 -0.67776066 -0.53658527 0.19524948
-0.0076075522 -0.0072580944 1.6706561 0.32802975 0.67723244 -0.65859902 0.18645675
-0.015106711 -0.061564695 1.6761866 0.53652543 0.0093056774 -0.84383279 0.12614401
-0.01476746 -0.053325232 1.6762526 0.6590631 -0.094633095 -0.74611014 0.14968476
-0.014673164 -0.055304024 1.6763624 0.48825982 -0.29674011 -0.82069951 0.10212348
-0.014447576 -0.062376563 1.6772389 0.49030757 -0.034196161 -0.87087834 0.1804563
-0.012728749 -0.041253481 1.6763779 0.8547318 -0.24507606 -0.457571 0.1162334
-0.012004204 -0.039202482 1.6770347 0.94872743 -0.10181197 -0.29925001 0.10060084
-0.013320425 -0.057058509 1.6780616 0.37278906 -0.1430781 -0.91681898 0.084346771
-0.0055217361 -0.0076134796 1.6740279 -0.99340421 0.069599897 -0.091125913 0.18025455
-0.011406328 -0.038006995 1.6778852 0.92517138 -0.29048207 -0.24429101 0.076781444
-0.011155937 -0.039253958 1.6780694 0.94096094 -0.28422454 -0.18387209 0.075983696
-0.0047947261 -0.010459932 1.6746886 0.99141234 0.071671851 -0.1093834 0.14212218
-0.01231605 -0.048723042 1.6791362 0.65550447 0.43493146 -0.61737227 0.22988856
-0.0049305749 -0.0062686088 1.675088 -0.84071535 -0.54145724 -0.0046766722 0.20729013
-0.0042815683 -0.011652002 1.6754237 0.85097104 -0.33035228 -0.40830833 0.20001076
-0.0038397224 -0.0079161115 1.6761105 -0.88409287 -0.36613679 -0.29038525 0.20513451
-0.01639528 -0.014157947 1.6624914 -0.024410425 -0.31627718 -0.94835269 0.16717368
-0.016063334 -0.010192497 1.6625925 0.034159031 -0.24716829 -0.96837026 0.17989673
-0.015222486 -0.011387073 1.6630918 -0.082254283 -0.21928278 -0.97218788 0.181587
-0.019199131 -0.052215301 1.6722019 0.24148652 -0.05964445 -0.96856946 0.063828103
-0.0039471081 -0.0074713072 1.6732677 0.91481012 -0.15088664 -0.37464067 0.18466164
-0.0031909302 -0.0061211144 1.6742513 -0.60485035 -0.7670393 -0.21402501 0.16075015
-0.0025509559 -0.01149845 1.6745911 0.063167252 0.91170317 -0.40596449 0.190512
-0.0014484689 -0.0087067354 1.6756946 -0.433907 -0.65492278 -0.61870903 0.2046905
-0.018564999 -0.013439782 1.6635882 -0.27316833 -0.12296654 -0.95407456 0.16452423
-0.018544016 -0.011672934 1.6635885 -0.44311881 0.070116885 -0.89371663 0.12687288
-0.017667476 -0.010397663 1.6641546 -0.32237056 -0.020447159 -0.94639266 0.1397965
-0.016211662 -0.013234 1.6646369 0.11148115 -0.74481678 -0.65789056 0.18771379
-0.015946399 -0.011935854 1.6647781 0.2304115 -0.48796552 -0.84190273 0.17299581
-0.0093496563 -0.01278198 1.6700976 -0.25636166 -0.18783033 -0.94815522 0.14635518
-0.0047844527 -0.010489978 1.6757481 -0.89424819 -0.083459646 -0.43972114 0.17613554
-0.0042392029 -0.011692619 1.6765207 -0.67407912 -0.24821563 -0.69570565 0.26242933
-0.025199328 -0.014866502 1.6668702 -0.12256868 -0.86424053 -0.48791936 0.19502144
-0.020059785 -0.01699581 1.6626313 0.54721564 0.68244201 -0.4845905 0.17124701
-0.021191988 0.0086782845 1.6573157 0.30281109 0.64780027 -0.69904244 0.1544167
-0.017038291 0.0021380689 1.6584792 0.66651386 0.25255743 -0.70140868 0.084066845
-0.020153876 0.0088006118 1.6592289 0.18845122 0.93473309 -0.30126432 0.11496892
-0.019255145 0.0087205581 1.6610885 0.12123927 0.97039992 -0.20886599 0.13744147
-0.015844531 0.0019199596 1.6605006 -0.79039448 -0.33429354 -0.51334625 0.17564262
-0.014731785 0.00092829805 1.6627225 0.96991801 0.064370111 -0.2347672 0.21730067
-0.013959381 0.0014555373 1.6651325 0.88011247 0.44621259 -0.16216165 0.093266249
-0.013792627 -0.00059292058 1.6651293 -0.76811808 -0.6061573 -0.20632003 0.18338084
-0.01530894 -0.016590694 1.6664374 0.96598774 0.042204097 -0.25512055 0.11443899
-0.014819045 -0.012696619 1.6679595 0.83023441 -0.082275376 -0.55130899 0.15185167
-0.014558476 -0.014903218 1.6680449 0.74091148 -0.39240375 -0.54504073 0.12392403
-0.015028679 -0.022255586 1.6681772 -0.47406158 0.79729271 -0.37361738 0.228414
-0.015638355 0.0088732149 1.6694787 -0.040762089 -0.94560903 -0.32274154 0.12390083
-0.013997111 -0.016391102 1.6701419 0.91628826 0.097099222 -0.38857114 0.087091476
-0.014758106 0.0070039635 1.6710036 -0.016025227 -0.88835973 -0.45886827 0.14746565
-0.01305226 -0.0029345825 1.6715381 -0.93085462 0.25312632 -0.26350859 0.13862316
-0.014224989 -0.023035992 1.6713839 0.64729357 -0.61332822 -0.4525919 0.086819954
-0.013343092 -0.004681794 1.6721634 0.95499635 -0.041420072 -0.29371148 0.18757534
-0.016278265 -0.032600924 1.6720684 0.38082266 0.11623151 -0.91731369 0.12782311
-0.013710888 0.0052839075 1.6730461 0.85589445 -0.21482268 -0.47042108 0.16601957
-0.015012443 -0.030356405 1.6733356 0.24931382 0.21013494 -0.94534969 0.11320161
-0.012755423 -0.011811608 1.6744019 0.91966689 0.21184394 -0.33065856 0.1239059
-0.012820999 0.0047327401 1.6753274 0.85390252 -0.2227679 -0.47034571 0.172451
-0.013120078 0.0081826746 1.675776 0.92349422 -0.34974334 -0.15760106 0.11682877
-0.014368 -0.0010106895 1.6775211 -0.38565072 -0.53615421 -0.75087434 0.20439446
-0.011446695 -0.014979925 1.6771703 -0.97314948 -0.22779892 -0.032980923 0.091213219
-0.01217347 0.0071843942 1.6779772 0.8893488 0.16937464 -0.42470104 0.12832405
-0.011668066 -0.020391636 1.677321 -0.80793196 0.56675792 -0.16134253 0.21134733
-0.017084658 -0.044637915 1.6777506 -0.74919194 -0.19298767 -0.63361436 0.16567706
-0.017696112 -0.049708333 1.6778746 0.94543225 0.29379076 -0.1408717 0.21405897
-0.011759887 0.0052770432 1.6784295 0.90234089 0.17182426 -0.39529395 0.10449462
-0.017305201 -0.046979163 1.6781245 0.64214212 0.20205674 -0.73947716 0.18533112
-0.015081691 0.0013802848 1.6791066 0.3421483 -0.69664472 -0.63057172 0.17142867
-0.01813007 -0.051786266 1.6785057 0.93752396 0.34761742 -0.014525963 0.11654177
-0.011863879 0.0089425491 1.6794403 0.85611558 0.17124522 -0.48758715 0.10004459
-0.01140018 -0.015945921 1.6788492 -0.84949374 0.48427528 -0.20937514 0.085534066
-0.017414406 -0.04341368 1.6795534 0.93918502 0.33655295 -0.068290845 0.22998992
-0.011676484 -0.018968705 1.6794673 -0.56589669 0.713929 -0.41239113 0.17497621
-0.017137362 -0.052511733 1.6798784 0.93953454 0.34219748 0.013255335 0.12013503
-0.011015904 0.0050271349 1.680585 -0.97507626 -0.19008316 -0.11443222 0.19599746
-0.012415141 -0.0055970373 1.6809769 -0.86447924 -0.34223539 -0.36817199 0.11485674
-0.017383529 -0.047950435 1.6807669 0.79195124 0.1232091 -0.59802401 0.21070647
-0.011022513 -0.01450274 1.6808314 -0.9688096 0.18992785 -0.15917066 0.12120119
-0.011165079 0.0083012292 1.6814235 0.92955285 -0.27287275 -0.24793544 0.20963192
-0.016680926 -0.05477944 1.6807617 -0.90510404 -0.4178358 -0.078740478 0.14515649
-0.014173646 -0.029051926 1.6811988 0.88143867 0.43001181 -0.19533487 0.14351913
-0.016609594 -0.040862478 1.6813017 0.29921377 -0.92196089 -0.24588448 0.20253015
-0.016851751 -0.045633197 1.6812909 0.40730536 0.6429671 -0.64861053 0.1659728
-0.013506793 -0.0022049628 1.6819062 -0.030019563 -0.34481013 -0.93819231 0.18495251
-0.016597768 -0.05205432 1.681897 0.84077948 0.048805766 -0.53917331 0.094550133
-0.015775537 -0.033948194 1.6823666 0.3752434 0.44037181 -0.81563777 0.19751896
-0.016730534 -0.057035413 1.6819794 0.9542802 0.26820406 -0.13196948 0.15859117
-0.010289974 0.0046532406 1.6826708 0.80753845 -0.23322046 -0.54174709 0.26052904
-0.016985299 -0.061294209 1.6821115 0.79951918 0.33754647 -0.49682128 0.22265539
-0.015771657 -0.024421811 1.6828413 -0.62016439 -0.29474649 -0.72699422 0.22790456
-0.016594417 -0.054441165 1.6830285 0.098367073 -0.95835382 -0.26810804 0.15470919
-0.012805837 -0.0041734315 1.683979 -0.35059237 -0.095027283 -0.93169463 0.11469904
-0.010588811 -0.012975428 1.6837262 -0.77274913 0.41983774 -0.47602004 0.20314333
-0.010675522 -0.01532591 1.6838933 -0.10359203 0.98094273 -0.1643776 0.25383466
-0.010789452 -0.010985245 1.6840817 -0.57966578 0.68265188 -0.44494274 0.24119924
-0.0096567255 0.0058050249 1.6850854 0.88138449 0.21253568 -0.42188859 0.2612173
-0.011511469 -0.010511923 1.687142 0.87994826 -0.30705473 -0.36250299 0.15586774
-0.030381732 0.0079266606 1.6626488 0.41618282 0.47830555 -0.77331471 0.2090237
-0.027423706 -0.010889218 1.6647909 -0.0094889393 -0.86707264 -0.49809134 0.15574086
-0.014402652 0.0044756643 1.674492 0.81054366 -0.20347166 -0.54919785 0.14366497
-0.012870789 0.0064524263 1.6758124 0.92004377 -0.099181287 -0.37905467 0.15524086
-0.010510218 0.0072939121 1.6777678 0.89228427 0.23547824 -0.38519967 0.12287888
-0.0093445797 0.0046041077 1.6785355 0.23466483 0.95488316 -0.18201797 0.25031829
-0.009019129 0.0091147041 1.6790881 0.15427819 0.41541699 -0.89645243 0.15641479
-0.008701534 0.0069253468 1.6792018 0.087929316 0.27634269 -0.95702839 0.19545564
-0.0075153033 0.0048770015 1.6800402 -0.78742623 0.59141123 -0.17376076 0.20316139
-0.0067938883 0.0086093601 1.6808864 -0.15915285 -0.8697421 -0.46713939 0.19820072
-0.0063078399 0.0062105297 1.6811187 0.88076079 -0.37460184 -0.2897135 0.21504337
-0.0051143849 0.0090113068 1.6822939 0.22307752 -0.80543363 -0.54910201 0.090410724
-0.0043224092 0.0061059175 1.6827452 0.12251818 -0.90163398 -0.41478366 0.1735018
-0.002569892 0.0063222139 1.6842347 -0.0035723154 -0.87575519 -0.48274231 0.16501392
-0.02231965 0.0041591558 1.6537424 0.48370513 -0.29691407 -0.82332951 0.19376038
-0.020323869 0.0087572103 1.6572089 0.42033011 0.54709846 -0.72388256 0.10481686
-0.0065401811 -0.016369689 1.6757303 -0.47306094 0.81852472 -0.3259303 0.19701914
-0.015225098 0.008460029 1.6630703 -0.30919766 0.71408445 -0.62807661 0.22884974
-0.0064927307 -0.0077975825 1.6765456 -0.94583279 -0.10998072 -0.30545813 0.1591873
-0.013430395 -0.01404229 1.6657896 -0.66604692 -0.42862377 -0.61046153 0.14321119
-0.011794951 -0.019625645 1.6679515 0.9827885 0.18449399 -0.0094218859 0.19725166
-0.0088631846 -0.0089955106 1.66892 -0.22924203 0.019321645 -0.97317767 0.20312861
-0.0089785866 -0.016006684 1.6698599 -0.076947235 0.16504124 -0.98328048 0.24990948
-0.0073466017 -0.010785088 1.6707163 0.74600166 -0.38131425 -0.54596788 0.26004961
-0.0070102839 -0.016746825 1.6712332 -0.61801755 -0.33899143 -0.70932299 0.17568234
-0.0052800006 -0.018361369 1.672835 -0.8729015 0.053965222 -0.48490283 0.1700329
-0.020923235 -0.012497596 1.6662501 0.019178957 -0.87334412 -0.48672596 0.08410269
-0.010483572 -0.013088579 1.670992 -0.43292075 -0.83062035 -0.35021338 0.25992861
-0.0088096093 -0.015085896 1.6716751 -0.41495773 -0.18449911 -0.89093775 0.23854628
-0.027424727 0.005142644 1.652421 0.88034332 0.47020835 -0.062446561 0.10982036
-0.027224733 0.0082916562 1.6528769 -0.24107473 0.94214648 -0.2329013 0.13708842
-0.025075428 0.0079151327 1.6547459 -0.23900473 0.91304934 -0.33048096 0.14617218
-0.034008939 0.0043711155 1.6581956 -0.85590601 -0.38451922 -0.34578878 0.30194676
-0.02213493 0.0085724434 1.6574141 -0.10195847 0.86479741 -0.49166042 0.18374889
-0.0081651295 0.0027266499 1.6572113 0.36508074 -0.18855029 -0.91168243 0.192197
-0.0065248958 0.0020532005 1.6582284 0.51053762 -0.1923672 -0.83806092 0.20464475
-0.032417815 -0.012349172 1.6601855 -0.14217994 -0.11201829 -0.98348194 0.13919371
-0.0046398472 0.0021872383 1.6591841 0.5846951 -0.19150229 -0.78832638 0.16908775
-0.029043633 -0.010364166 1.6608875 -0.32124162 0.32105005 -0.89091563 0.09478692
-0.0024744063 0.0017401706 1.6610172 0.48834276 -0.60718375 -0.62677693 0.1145823
-0.015429917 0.0083814058 1.6631027 -0.30921072 0.71407044 -0.62808615 0.22885022
-0.027309734 -0.016920159 1.6635784 -0.22381331 -0.30358008 -0.92614621 0.15499924
-0.021546273 -0.010404247 1.6639771 -0.0043237633 -0.997087 -0.076149568 0.10986509
-0.0013248847 0.002298773 1.6634004 0.30958548 -0.60817999 -0.73094046 0.069765702
-0.020478122 -0.011659797 1.664542 -0.0079181353 -0.88742435 -0.46088549 0.10768265
-0.019155359 -0.0082864175 1.6661428 0.60498261 -0.7919364 -0.082660675 0.24764924
-0.016285017 -0.01624654 1.6665912 0.92384136 0.098997161 -0.36975229 0.093561508
-0.003115708 -0.0015582434 1.6665207 0.50152612 -0.739757 -0.44858801 0.060918473
-0.0018760648 4.918894e-05 1.6665776 0.36659345 -0.77761292 -0.51081049 0.033829845
-0.014009047 -0.012605976 1.6678541 0.8473593 0.11823314 -0.51769018 0.13770413
-0.0038785825 -0.0034528284 1.6675563 0.81110817 -0.50530338 -0.29457092 0.1419602
-0.014070912 -0.014826557 1.6679835 0.74934906 -0.52166057 -0.40785581 0.1187947
-0.010320524 0.0092747035 1.6687689 -0.0098718172 -0.98055112 -0.19601567 0.13590132
-0.0040835463 -0.0026288389 1.6690261 0.68923074 -0.61483127 -0.38333204 0.087768897
-0.0089558903 -0.0081799328 1.6695318 0.052485507 0.42551517 -0.90342802 0.12432884
-0.0087620225 0.0074566365 1.670212 -0.055001505 -0.88672501 -0.45901358 0.16744708
-0.005539827 -0.0024425741 1.6705493 -0.4970465 -0.42653182 -0.75565559 0.147037
-0.0078690238 0.0058971252 1.6711416 -0.11713643 -0.94317442 -0.31096789 0.21808812
-0.0085433675 -0.0043994198 1.6715313 -0.021049086 0.13548309 -0.990556 0.15516563
-0.009313005 -0.0067408988 1.6720706 0.29868025 0.53289175 -0.79171741 0.12443636
-0.0067305025 0.0093772514 1.6732548 0.58101213 -0.03536471 -0.81312627 0.20074196
-0.011350538 -0.01872897 1.673196 0.77128828 -0.41314757 -0.48417291 0.10941623
-0.0334174 -0.033279873 1.6743253 0.8238672 0.43917522 -0.35828471 0.13505238
-0.010413293 -0.011725693 1.6740941 -0.61815929 -0.78261375 -0.073448926 0.20864336
-0.0093747228 -0.017231563 1.6741472 0.58636278 -0.78857809 -0.18526572 0.27859157
-0.0054552872 0.0087941317 1.6747975 0.87519777 -0.455663 -0.16248111 0.2089275
-0.028065272 -0.030922674 1.6750368 0.8418296 -0.21444583 -0.49531388 0.1630704
-0.018704539 -0.025728472 1.674844 -0.19616842 0.92092049 -0.33678389 0.2032657
-0.0608951 -0.059393022 1.676761 -0.49636686 0.4969224 -0.71182019 0.019733576
-0.0045414655 0.0055005965 1.6752416 -0.50415665 -0.84916931 -0.1572815 0.20768821
-0.061907981 -0.058502711 1.6769875 -0.49636677 0.49692243 -0.71182024 0.019733576
-0.059410151 -0.049463555 1.6773705 -0.47651628 0.54530722 -0.68961751 0.021160847
-0.011894125 -0.020492204 1.6752636 0.85476756 -0.50353909 -0.12578101 0.11017247
-0.057368323 -0.051454067 1.6774232 -0.39268249 0.55152184 -0.73595124 0.019671407
-0.058567528 -0.055376291 1.6776774 -0.47445557 0.55369347 -0.68433571 0.020897064
-0.0083571263 -0.014909953 1.6757929 0.4760834 -0.84505206 -0.24337532 0.16315715
-0.056234818 -0.052043248 1.6776489 -0.39268216 0.55152136 -0.7359516 0.019671271
-0.052744895 -0.045512397 1.6778462 -0.39834377 0.54233372 -0.73972726 0.022144113
-0.0095758932 -0.017310709 1.6761451 -0.92972761 0.36172614 -0.068998031 0.18341978
-0.055901442 -0.048277557 1.6782955 -0.3926824 0.55152178 -0.7359513 0.019671375
-0.054612678 -0.049222924 1.6784562 0.0051520295 0.206184 -0.97849965 0.067678727
-0.046737678 -0.04334398 1.6782296 -0.2475657 0.37549004 -0.89315087 0.02328879
-0.014798287 -0.023356277 1.6769508 -0.77075571 0.63356608 -0.06730336 0.084318958
-0.059697974 -0.054836389 1.6788164 -0.45851862 0.56698155 -0.68431908 0.021206187
-0.0028265039 0.0051149526 1.6777204 0.41547066 0.42307964 -0.80522519 0.22168432
-0.0059343493 0.007763654 1.6781232 -0.94555837 0.14326333 -0.29222423 0.19913363
-0.050042581 -0.046569005 1.6791292 0.29513994 -0.27542803 -0.91489446 0.028590715
-0.0530774 -0.048825271 1.6795613 0.3921977 -0.16074809 -0.90572679 0.0099704638
-0.021189697 0.001028222 1.6798822 -0.28752351 -0.51907492 -0.80491704 0.10706203
-0.048020594 -0.047033396 1.6800368 0.21690917 -0.30065036 -0.92874092 0.067214057
-0.046304617 -0.039640259 1.680478 -0.31695139 0.75231308 -0.57755256 0.03871011
-0.001703407 0.0053419084 1.6793221 -0.13961568 -0.9900195 -0.019205512 0.22482307
-0.0087920884 -0.0085044308 1.6794194 -0.39843327 -0.65787208 -0.63910496 0.15851972
-0.015599595 -0.021086739 1.6796792 -0.5342232 0.04639611 -0.84406936 0.1769727
-0.014081279 -0.019168008 1.6797612 -0.762734 0.45859116 -0.45599446 0.11260232
-0.046590056 -0.044217203 1.6809431 0.067692921 -0.33832964 -0.93858969 0.089945517
-0.020151956 -0.022932021 1.6806934 0.25937566 0.47067073 -0.84332281 0.21210822
-0.04471096 -0.040987063 1.6818116 -0.32697707 0.91430992 -0.23900487 0.12761447
-0.014954223 -0.018398797 1.6810404 -0.25222039 0.38489935 -0.88782734 0.16252436
-0.013077821 -0.016977618 1.681195 -0.47625616 0.72540605 -0.496957 0.12051699
-0.0093161995 -0.014115948 1.6814724 -0.054878119 0.91112137 -0.40846813 0.21513927
-0.045591883 -0.040037416 1.6827998 -0.39350387 0.8192659 -0.41708285 0.029591626
-0.01782296 -0.0024463867 1.6824435 -0.21739304 -0.36733559 -0.9043256 0.12615092
-0.021908786 0.0014819986 1.6828732 0.068577223 0.8532142 -0.51703256 0.13511193
-0.00022411135 0.00579804 1.6821408 -0.96580154 -0.0066250507 -0.25919783 0.25755131
-0.031614922 -0.030279191 1.6832169 -0.74834323 0.58546364 -0.31179291 0.095276967
-0.010674853 -0.01466984 1.6832751 0.068470217 0.58840734 -0.80566037 0.25883982
-0.01068104 -0.010922644 1.6836933 -0.5796656 0.68265182 -0.44494283 0.24119924
-0.0009594615 0.0045214402 1.6840353 -0.015899567 -0.97978425 -0.19942422 0.10704117
-0.012203859 -0.015503181 1.6840703 -0.62790698 0.57726324 -0.52201527 0.17601387
0.00084567291 0.0059214821 1.6844425 -0.739609 0.61942512 -0.26323217 0.18542004
-0.013317727 -0.0094088567 1.6852663 0.45426795 -0.012561505 -0.89077652 0.10891923
-0.015407917 -0.016259972 1.6857578 0.16725191 0.82974768 -0.53249019 0.13817874
-0.017628191 -0.013566528 1.6878805 -0.65311134 0.63422 -0.41377604 0.15845425
-0.021726072 -0.0151812 1.6890272 -0.68223804 0.60144013 -0.41571751 0.13353831
-0.023515835 -0.017074568 1.6893877 -0.76162827 0.34658891 -0.54753846 0.11825405
-0.019478025 -0.010525315 1.6893959 0.86337537 -0.49170691 -0.11316907 0.16626409
-0.020999931 -0.01272516 1.6895806 -0.79414302 0.56375402 -0.22697626 0.17170985
-0.025470015 -0.01676869 1.6901698 -0.74483562 0.31260058 -0.58949196 0.077996947
-0.020670705 -0.010122636 1.6902796 0.77499723 -0.59391904 -0.21596153 0.13792913
-0.024330014 0.0050589484 1.6574471 -0.31008995 0.16797972 -0.93574953 0.10655486
-0.015665468 0.0022522947 1.6577879 0.54726821 0.82860607 -0.11793893 0.2040823
-0.014554763 0.0017796864 1.6591587 -0.60172266 -0.11113433 -0.79093552 0.20470163
-0.012840716 0.0010956649 1.6617802 -0.029193873 -0.86360848 -0.50331718 0.18610579
-0.018443175 -0.013313815 1.6635307 -0.27316833 -0.12296659 -0.95407456 0.16452432
-0.011845673 0.00096561952 1.6645098 0.24279715 -0.81001812 -0.53377914 0.17830704
-0.016663771 -0.011886026 1.6651351 0.46028748 -0.69166011 -0.55654442 0.21055135
-0.015679497 -0.015118757 1.6660527 0.90075386 0.054898914 -0.43084627 0.22305965
-0.01153239 -0.0014260359 1.667204 -0.37058645 -0.88151926 -0.29255676 0.13667265
-0.015339335 -0.0089183087 1.6674675 0.92186004 0.055691466 -0.38350037 0.11285928
-0.014481769 -0.014894149 1.6680076 0.74091166 -0.3924036 -0.54504067 0.12392398
-0.014148791 -0.0091650952 1.6686881 0.83336049 -0.011179771 -0.55261672 0.17499705
-0.013670117 -0.0075137173 1.6687715 0.60697609 0.16539931 -0.77731782 0.13232635
-0.014983085 -0.019828206 1.6684918 -0.99620658 -0.042570628 -0.075895429 0.17829651
-0.014360186 -0.012381883 1.6694217 0.78611088 0.049331807 -0.6161136 0.10156436
-0.013125886 -0.0094156256 1.6700944 -0.14393306 0.3065536 -0.94090819 0.26576525
-0.014031932 -0.016401999 1.6701586 0.91628832 0.097099245 -0.38857108 0.087091446
-0.012411942 -0.0060699913 1.6705663 -0.17153242 0.3667689 -0.9143616 0.21960624
-0.013565521 0.0072189947 1.6713104 -0.0062002004 -0.89699984 -0.44198751 0.16104662
-0.011890868 -0.0028222054 1.6709702 -0.87153184 -0.14324725 -0.46894839 0.24118967
-0.013135428 -0.013293966 1.6712327 0.91698718 -0.19625434 -0.34730205 0.17046957
-0.013140569 -0.010707399 1.6714052 0.91326362 0.34443286 -0.21752162 0.15824986
-0.012677623 0.0054117143 1.6725433 0.35536879 -0.91982287 -0.1662495 0.18892328
-0.012762203 -0.017173806 1.6719207 0.72765827 -0.46917886 -0.50038451 0.1814149
-0.012625922 -0.0069371779 1.672286 0.88885492 -0.44669434 -0.10198565 0.23163188
-0.01183083 -0.013835755 1.6728979 0.94598848 -0.32063472 -0.047950048 0.20492686
-0.018966781 -0.032812499 1.6733842 0.55872351 -0.11038784 -0.82197481 0.24777631
-0.012033379 -0.018848462 1.6736277 0.83435631 -0.25252628 -0.48997954 0.086823806
-0.012389266 -0.011802739 1.674222 0.93114102 0.31711277 -0.18004395 0.16239947
-0.011650301 0.0048803533 1.6747609 0.82992721 -0.55759531 -0.017556248 0.21489264
-0.011940546 0.008344206 1.6752062 0.98003405 0.037457697 -0.19526944 0.1018405
-0.014084307 -0.025545429 1.6745485 0.95128679 -0.30019444 -0.070261925 0.12674971
-0.013073863 -0.023018762 1.6746241 0.79954457 -0.59845239 -0.050825659 0.11996479
-0.012906507 -0.0065322835 1.6755216 0.97927034 -0.108349 -0.17114352 0.13699923
-0.011808842 -0.020054454 1.6755114 0.82596016 -0.48919004 -0.28014794 0.1785273
-0.025921337 -0.050936099 1.6754107 0.92419648 0.041199256 -0.37968847 0.13888103
-0.026022371 -0.060438849 1.6752568 -0.013086741 -0.079393044 -0.99675751 0.10574274
-0.025983369 -0.05491966 1.6755989 0.76002365 0.20493801 -0.61673695 0.17683813
-0.011062482 -0.015030327 1.6759623 0.95245862 0.11946182 -0.2802704 0.14409722
-0.011220437 -0.017374147 1.6762478 0.95197952 -0.30181026 -0.051435102 0.16996744
-0.024828628 -0.04942397 1.6763487 0.80098075 -0.17458202 -0.57267004 0.17664036
-0.010868839 0.0073629571 1.67735 0.89279026 0.074448146 -0.44427803 0.14726643
-0.011923703 -0.0082200347 1.6771184 0.63358015 -0.73650759 -0.23692366 0.25069496
-0.022316238 -0.042380512 1.6768248 0.67021036 0.1298379 -0.73072582 0.099281117
-0.025083154 -0.059732687 1.6769586 -0.98318511 -0.12014936 -0.13751785 0.20783301
-0.01022139 0.0046213665 1.6781682 0.90991753 -0.13372797 -0.39264098 0.11285681
-0.011359788 -0.011106823 1.677853 0.99699324 0.012490929 -0.076474696 0.10056388
-0.02457941 -0.05469219 1.6775165 0.88406646 0.43969867 -0.1584038 0.14177865
-0.02418983 -0.051923394 1.6776088 0.98178142 -0.18993056 -0.0056209452 0.09769205
-0.025230465 -0.056582917 1.6776354 0.97183704 0.10044286 -0.21317574 0.10155305
-0.022955006 -0.04476805 1.6781682 0.96152121 -0.19943638 -0.18895021 0.18202807
-0.011731518 -0.0067869998 1.6788262 -0.91973603 -0.3320702 -0.20932014 0.23199792
-0.010263708 0.0091071427 1.6795095 0.69132465 0.073715411 -0.71877408 0.19793709
