# .PCD v0.7 - Point Cloud Data file format
VERSION 0.7
FIELDS x y z normal_x normal_y normal_z curvature
SIZE 4 4 4 4 4 4 4
TYPE F F F F F F F
COUNT 1 1 1 1 1 1 1
WIDTH 607
HEIGHT 1
VIEWPOINT 0 0 0 1 0 0 0
POINTS 607
DATA ascii
-0.1292125 -0.53856438 7.0546646 0.68252963 -0.551476 -0.47961184 0.019324044
-0.076712631 -0.34881645 6.9744325 0.54720098 -0.39544186 -0.73769701 0.080303095
-0.054796319 -0.29775739 6.9597054 0.39810595 -0.50366491 -0.76670289 0.084097467
-0.051735979 -0.32322836 6.9823837 0.54720092 -0.39544183 -0.73769701 0.08030308
-0.051735979 -0.32322836 6.9823837 0.54720092 -0.39544183 -0.73769701 0.08030308
-0.01636319 -0.28429562 6.9688816 0.18416722 -0.63875866 -0.74704075 0.046179809
-0.0011266866 -0.22457057 6.9264288 0.24233638 -0.64387226 -0.7257421 0.035399359
0.071250342 0.40108436 6.6964345 0.3485347 0.22807707 -0.90912288 0.10553873
0.099343926 0.074106805 6.6446834 0.33536607 0.11023472 -0.93561631 0.079323351
0.11296189 -0.3050909 7.0908766 0.42963082 -0.65736026 -0.6191082 0.0077354745
0.12965402 0.029412037 6.6389093 0.29595453 0.064093299 -0.95304924 0.10896319
0.13025902 0.0068252329 6.6372728 0.40258911 -0.48088485 -0.77889138 0.055532549
0.13194668 -0.0016941725 6.6276073 0.40258908 -0.48088482 -0.77889138 0.055532519
0.15806587 0.075991847 6.6511893 0.84366328 0.10049395 -0.52738333 0.16887674
0.16148907 -0.041759174 6.6781893 0.59039772 -0.56917912 -0.57224625 0.051890217
0.16097124 0.70569128 6.5915651 0.57234263 -0.40159258 -0.71494561 0.0080754552
0.18501613 -0.64957976 7.398818 0.42082042 -0.43651375 -0.79521435 0.047853108
0.18978615 -0.64283508 7.4030271 0.42082036 -0.43651384 -0.79521441 0.047853071
0.1725906 0.073558569 6.637074 0.70514852 0.15159117 -0.6926657 0.12310098
0.20238437 -0.65966034 7.3953428 0.42082042 -0.43651378 -0.79521441 0.047853071
0.20955266 -0.50242716 7.3179088 0.52653205 -0.51006091 -0.68014842 0.025906775
0.19233482 0.066741072 6.6604824 -0.48398355 -0.6535067 -0.58196992 0.11926624
0.19384272 0.022680502 6.6756659 0.81814677 -0.034011904 -0.57400256 0.1137716
0.21972577 -0.61592066 7.3851037 0.42082044 -0.43651378 -0.79521441 0.047853164
0.20152462 0.052650373 6.6769786 0.52320403 -0.2977905 -0.79848504 0.17770359
0.2292169 -0.65037954 7.4041824 0.42082036 -0.43651378 -0.79521441 0.047853071
0.23608649 -0.190817 7.0623226 0.53657776 -0.70267838 -0.46725518 0.1283105
0.25000349 -0.67227274 7.4363947 0.42082033 -0.43651375 -0.79521435 0.047853157
0.24857862 -0.50008571 7.331038 0.41367498 -0.50463998 -0.75776744 0.027067689
0.2347407 0.70554322 6.6152959 0.59092945 -0.41298962 -0.69299501 0.0071305623
0.27238065 -0.28543943 7.1857767 0.052248128 -0.71821338 -0.69385844 0.036224268
0.27682862 -0.30295202 7.1862292 0.065801814 -0.69263297 -0.7182824 0.027736381
0.29363859 -0.32516947 7.2268634 0.065801822 -0.69263291 -0.71828246 0.027736422
0.28050792 0.39901099 6.835319 -0.1031053 -0.80118471 -0.58946788 0.045334063
0.2801539 0.69994563 6.6695395 0.60852385 -0.3239634 -0.7243939 0.0034281104
0.34415284 0.27088216 6.9107361 0.62574536 -0.17774744 -0.75950545 0.046405364
0.36133996 0.039599698 7.0298119 0.37126094 -0.11305278 -0.92162055 0.12980765
0.35540673 0.35238016 6.8980527 0.54689443 -0.27102914 -0.79211712 0.041467637
0.37095898 0.16244255 6.981523 0.69934279 -0.20804264 -0.68384057 0.049381848
0.3881788 0.34984398 6.9345999 0.62294132 -0.29802167 -0.7232753 0.040306266
0.3881788 0.34984398 6.9345999 0.62294132 -0.29802167 -0.7232753 0.040306266
0.39925033 0.23178715 6.9997215 0.7598052 -0.13491318 -0.63599873 0.023839081
0.40075293 -0.23982884 6.8657165 0.25405943 -0.47416687 -0.84298265 0.06723129
0.40309992 -0.21928355 6.8658137 0.25406003 -0.47416705 -0.84298223 0.067231491
0.42240185 0.21627541 7.0580792 0.74961376 -0.17998448 -0.63693392 0.054346655
0.42316413 -0.20276077 6.8595381 0.2410474 -0.39952499 -0.88446361 0.087109245
0.42557338 -0.22254106 6.8769569 0.35669592 -0.55389774 -0.75230664 0.034083277
0.43699551 -0.20595631 6.8603697 0.27392307 -0.49317509 -0.82567823 0.059435438
0.45163667 0.58340329 6.858624 0.53651595 -0.35949275 -0.76348913 0.03416435
0.47396481 0.16962938 7.1186519 0.75901765 -0.16443162 -0.62996382 0.022936847
0.48128751 0.03672241 7.1526823 0.63668841 -0.45357236 -0.62361854 0.063747294
0.46194005 -0.14060695 6.8547282 0.47425482 -0.44918692 -0.75717461 0.087244272
0.46964386 -0.15981762 6.8611994 0.57115996 -0.40391684 -0.71458209 0.080621265
0.55072194 0.24412574 7.1375909 0.62080061 -0.42765158 -0.6570546 0.014614284
0.56641597 0.21239895 7.1691346 0.70035774 -0.27167881 -0.66006792 0.020957066
0.56641597 0.21239895 7.1691346 0.70035774 -0.27167881 -0.66006792 0.020957066
0.55569458 0.49348789 6.9962273 0.4823806 -0.26938492 -0.83351111 0.033139337
0.55622011 0.51459092 6.9874368 0.5358882 -0.25257096 -0.80562508 0.031415485
0.78473097 0.28632504 7.338861 0.65712923 -0.082122631 -0.74929094 0.158233
0.78556412 0.28579193 7.3422346 0.65712941 -0.082122661 -0.74929076 0.15823311
0.78556412 0.28579193 7.3422346 0.65712941 -0.082122661 -0.74929076 0.15823311
0.79711431 0.21011655 7.3494501 0.51571858 -0.77484769 -0.3655754 0.054912902
0.80282861 0.2702066 7.3415351 -0.19579108 -0.24325536 -0.94999623 0.14013517
0.80546176 0.2495743 7.329278 0.4252204 0.053811491 -0.90348876 0.14188644
0.81563503 0.26650557 7.334981 -0.19579063 -0.24325514 -0.94999629 0.14013505
0.82572031 0.22451593 7.3652458 0.78976345 -0.37981483 -0.48167875 0.10717575
0.84416026 0.22851571 7.3721223 0.95459551 0.01670534 -0.29743627 0.18542723
1.0621518 0.07577534 7.6382337 0.37168303 -0.57417953 -0.72949958 0.0083635254
1.385904 -0.90153611 8.6871233 -0.18016192 -0.021339893 -0.98340547 0.22299722
1.385904 -0.90153611 8.6871233 -0.18016192 -0.021339893 -0.98340547 0.22299722
1.4359742 -0.89860404 8.7185907 0.57907313 0.49484921 -0.64791858 0.17155717
1.4353737 -0.9309656 8.6886053 0.37203082 -0.24997795 -0.89392626 0.12396358
1.4797194 -0.79605895 8.5389128 -0.92282844 0.38490796 -0.015280623 0.07865411
1.5602648 -0.69856519 8.9833298 0.55467188 -0.42120796 -0.71758127 0.086518541
1.5636681 -0.68611091 8.9775887 0.61369187 -0.43662706 -0.65782905 0.06949541
1.5636681 -0.68611091 8.9775887 0.61369187 -0.43662706 -0.65782905 0.06949541
1.5696765 -0.73573041 8.7770863 -0.39858246 0.52412188 -0.75261426 0.15173431
1.5975511 -0.66438204 8.8112593 -0.73131049 0.66125381 -0.16711788 0.26929244
1.5861868 -0.74285185 8.7327585 0.033250146 0.82886976 -0.55845261 0.15539297
1.6823514 -0.959849 9.015811 0.16001599 -0.13399862 -0.9779771 0.16224039
0.9775483 0.11535826 7.5456777 0.56320298 -0.42901528 -0.70622116 0.0053101238
-0.55262947 0.35364953 6.4862099 -0.29697582 -0.25939643 -0.91897708 0.068797499
-0.54085714 0.37545401 6.4713993 -0.29697579 -0.25939646 -0.91897714 0.068797715
-0.53228194 0.35803714 6.4652305 0.059047528 -0.3180449 -0.94623512 0.073907919
-0.52392358 0.42383119 6.4473476 0.16344561 -0.49819139 -0.85152268 0.12165842
-0.5022161 0.44945738 6.468936 0.51616395 0.16951574 -0.8395471 0.20593405
-0.45831609 0.43217367 6.4651098 0.61110866 -0.19260657 -0.76775581 0.14911319
-0.44867656 0.45176116 6.4944181 0.51719087 0.29551789 -0.80323273 0.13070942
-0.33059508 0.25407934 6.3998156 0.38539466 -0.50022954 -0.77539754 0.077274136
-0.23534857 0.44229189 6.4040008 0.34416851 0.03690958 -0.93818218 0.038848069
0.016953567 0.16648713 6.6034369 0.43389753 0.35322943 -0.82883161 0.041530218
0.22410882 0.052004661 6.6999216 0.77504748 -0.27687842 -0.56801385 0.11848205
-0.054902591 -0.29757708 6.9711308 0.57089865 -0.43298221 -0.697568 0.070000328
-0.051365979 -0.35855788 7.0037141 0.54720086 -0.39544195 -0.73769701 0.080303051
-0.01639754 -0.28565267 6.9895916 0.17180158 -0.58451611 -0.79298502 0.061524786
-0.017562727 -0.32729998 7.0040779 0.41693604 -0.51357394 -0.74993742 0.11040679
0.050118666 -0.2192595 6.9474378 0.24233617 -0.64387208 -0.72574228 0.035399538
0.12344211 0.69613236 6.5436282 0.57234257 -0.40159237 -0.71494579 0.0080753611
0.14576384 -0.042258393 6.6858726 0.59039778 -0.56917906 -0.57224607 0.051890198
0.16117761 -0.040187787 6.6665697 0.50023293 -0.61243707 -0.61211753 0.042146865
0.17162591 -0.013951677 6.674531 0.67491436 -0.38820186 -0.62752688 0.048861079
0.1758772 0.49609813 6.666955 0.46815497 -0.39154866 -0.792162 0.0074289208
0.18372253 0.044922922 6.6616921 -0.55874503 -0.077323057 -0.82572705 0.22182491
0.1864313 0.076760992 6.6413951 0.72842515 0.31194997 -0.60998696 0.13255845
0.18469831 0.02004181 6.6714149 0.5347172 0.38264859 -0.75343055 0.13444935
0.18584345 -0.022870252 6.6882534 0.70486051 -0.54968792 -0.44834688 0.047808472
0.13938135 -0.26421094 7.0883718 0.43585679 -0.64092475 -0.63185787 0.014967266
0.20812722 0.015224068 6.6915412 0.67862618 -0.35139573 -0.64497101 0.12592091
0.15623726 -0.56553423 7.4109826 0.42082033 -0.43651375 -0.79521441 0.047853164
0.17746793 -0.64322966 7.4092541 0.42082039 -0.43651384 -0.79521441 0.047853157
0.31512505 0.25189507 6.9005041 0.62574482 -0.17774728 -0.75950593 0.04640526
0.33953217 0.32110414 6.9029832 0.68986672 -0.16527088 -0.70481879 0.047616173
0.34714887 0.010832814 7.03297 -0.65880591 0.096246503 -0.74613088 0.15181257
0.39009392 -0.25603935 6.8872261 -0.83051431 0.36428201 -0.42136049 0.10368344
0.43340307 -0.18176892 6.8531094 0.16219239 -0.35917807 -0.91906738 0.079023898
0.43186262 -0.23599331 6.8805094 0.35669622 -0.55389792 -0.75230646 0.034083311
0.42227823 0.12245168 7.0527563 0.69231296 -0.18904334 -0.6963945 0.034576379
0.43095267 -0.026585788 6.9710927 -0.27476752 0.53246462 -0.80061489 0.049638327
0.45253554 0.58220154 6.8716435 0.53651524 -0.35949343 -0.76348925 0.034164589
0.45607951 -0.1834119 6.8616447 0.43346196 -0.31958649 -0.84260029 0.075770259
0.46414182 -0.20057693 6.86696 0.40078092 -0.36811247 -0.83896834 0.073140755
0.44930875 0.18951756 7.0759158 0.74756718 -0.17953762 -0.63946038 0.042727545
0.48964632 -0.15596478 6.8795156 0.75038975 -0.46033689 -0.47434714 0.069209687
0.50187224 0.050483067 7.1646051 0.63668823 -0.45357248 -0.6236186 0.063747309
0.52333033 0.048028305 7.1831861 0.63668829 -0.45357242 -0.62361854 0.063747294
0.80682284 0.24951619 7.341578 -0.19579047 -0.24325512 -0.94999641 0.14013503
1.5809809 -0.71288711 8.7562914 -0.38133761 0.14425229 -0.91311169 0.16380408
1.5930258 -0.66164142 8.7864428 -0.72534198 0.62205058 -0.29484245 0.20748454
1.5936024 -0.74571389 8.7737341 -0.23793158 0.62716365 -0.74165654 0.13347839
1.662699 -0.80223793 8.9604263 0.70817459 0.60233444 -0.36835036 0.13350995
1.6751965 -0.95629805 8.9774904 0.18581566 -0.69142294 -0.69814533 0.12802659
-0.014891667 -0.28524977 6.9791489 0.13848552 -0.62394583 -0.769099 0.045353375
0.43302485 -0.16724792 6.8563442 0.28354895 -0.26965114 -0.92026538 0.074470319
0.44524229 -0.23280615 6.8795333 0.3566964 -0.55389798 -0.75230634 0.034083363
-0.53185564 0.36348009 6.4458666 -0.29697412 -0.259397 -0.91897744 0.068797447
-0.49176428 0.42753601 6.4263177 0.28978455 -0.52476108 -0.80040658 0.17828348
-0.35895944 0.29928628 6.3562632 0.17741457 -0.37436801 -0.91014981 0.1047292
-0.34185177 0.31440204 6.3386922 0.0012732231 -0.26386833 -0.96455783 0.1097256
-0.22937351 -0.21611102 6.7434206 0.53343081 -0.5291568 -0.65988237 0.0082338378
-0.2183639 -0.27693957 6.7969279 0.54293329 -0.52268827 -0.65728259 0.0078559583
-0.14815173 -0.55220443 7.0621018 0.68252969 -0.551476 -0.47961172 0.019324047
-0.030938718 -0.34670845 7.0056567 0.41693604 -0.513574 -0.74993747 0.11040681
0.10054946 0.076128565 6.626811 0.45839551 0.012568113 -0.88865948 0.15142891
0.16106865 0.70252943 6.5761781 0.57234263 -0.40159243 -0.71494573 0.0080753863
0.15863433 0.035771504 6.6189847 0.43653867 -0.21923637 -0.87256485 0.057250477
0.15073355 -0.060829256 6.6943216 0.55699533 -0.53828096 -0.63246334 0.051459555
0.16591823 0.087194555 6.6380701 0.78630739 0.13874395 -0.60205537 0.17208464
0.15637444 -0.049842097 6.6886005 0.55699539 -0.53828102 -0.63246322 0.051459529
0.17017731 -0.05878412 6.7033072 0.54990172 -0.56806886 -0.61229557 0.051059052
-0.03823727 -0.47081047 7.6473522 -0.71060467 -0.26394451 -0.65220714 0.10703536
0.25146425 -0.23175046 7.0363412 -0.11353665 -0.792642 -0.59902263 0.060348719
0.2752625 -0.30457932 7.1974354 0.065801851 -0.69263291 -0.71828252 0.027736336
0.22703759 -0.65133715 7.4217834 0.42082042 -0.43651378 -0.79521447 0.047853105
0.3421053 0.27642825 6.9323163 0.66087919 -0.1514658 -0.73504883 0.032057986
0.38747016 0.34954935 6.9478083 0.6455341 -0.44278389 -0.62227654 0.028938677
0.41440177 -0.22353779 6.8611298 0.25405967 -0.47416699 -0.84298241 0.067231387
0.38145244 0.042054966 7.0485268 0.51110059 -0.15181005 -0.84600818 0.1318723
0.44316903 -0.18977611 6.8575392 0.22543611 -0.33254972 -0.9157452 0.087875649
0.42037466 -0.010543866 6.9856677 -0.38051686 0.58684772 -0.71471441 0.037407171
0.46008876 -0.12443617 6.8477192 0.50458211 -0.44327608 -0.74088001 0.090439074
0.4292911 -0.0017292325 6.996223 -0.38303781 0.62894058 -0.67654693 0.02344279
0.34142059 -0.57477653 7.4462762 0.42082071 -0.43651378 -0.79521424 0.047853086
0.45341644 -0.047927532 6.9473529 -0.28835344 0.49803481 -0.8178103 0.044737775
0.48131889 -0.13857818 6.8694553 0.64076871 -0.53966683 -0.5460543 0.10295402
0.5042581 -0.14855328 6.8646073 0.64076883 -0.53966677 -0.54605407 0.10295399
0.4875263 0.070717923 7.1347518 0.73107952 -0.27996704 -0.62220669 0.055497918
0.50111616 0.050421089 7.175962 0.63668829 -0.45357236 -0.6236186 0.063747279
0.52240503 0.048407547 7.1976695 0.63668847 -0.45357212 -0.62361866 0.063747272
0.56177312 0.52603352 6.9996629 0.53588831 -0.25257093 -0.80562502 0.031415537
0.54912311 0.24244457 7.1540031 0.62080067 -0.42765182 -0.65705436 0.014614362
0.56816918 0.19449997 7.1922112 0.69304293 -0.26592132 -0.67005765 0.021531675
0.64278877 0.41273534 7.6244917 0.52557677 0.84392911 -0.10748404 0.007475025
0.70068014 -0.38508704 7.3870592 0.89896512 0.31439301 -0.30498996 0.034811553
0.96434253 0.13027152 7.543251 0.5632028 -0.42901513 -0.70622146 0.0053096837
1.3626937 -0.88769573 8.768446 -0.38120997 0.76715171 -0.51590419 0.15656489
1.5013556 -0.76514477 8.5805712 -0.90429723 0.27387756 -0.32747161 0.16008469
1.56028 -0.92274219 9.0099554 0.2935994 -0.57181275 -0.76604807 0.15866627
1.5634691 -0.94574326 9.0357609 -0.18707308 -0.82874638 -0.52743071 0.09979409
1.5972705 -0.66294408 8.8470201 -0.78630799 0.60604596 0.12011657 0.072079457
1.6686598 -0.80807436 9.037941 -0.85889268 -0.46665299 -0.21104132 0.08086814
1.6902179 -0.82728356 8.9994249 0.95228589 -0.0041126655 -0.30517974 0.14269516
1.6936698 -0.85747612 9.0078554 -0.99584967 0.0070056408 -0.090742879 0.10887942
0.16552813 0.0062414925 6.6553326 0.52879322 -0.2694056 -0.8048591 0.088249713
0.35619229 0.35361183 6.9133496 0.54689437 -0.27102906 -0.79211736 0.041467577
1.3616357 -0.65844691 8.4040318 -0.27046794 -0.75891995 -0.59235764 0.08803378
1.3807129 -0.92829812 8.7249546 -0.56354189 -0.43910718 -0.699718 0.18237941
1.5886286 -0.71606332 8.7986679 -0.21037787 0.47172028 -0.85628337 0.13025494
1.6792716 -0.95657492 8.9996367 0.38630828 -0.52459103 -0.75866336 0.18292868
-0.87600762 0.67227948 6.0366383 0.49844098 -0.47569025 -0.72475886 0.0025463349
0.41868538 0.21742027 7.039804 0.74961376 -0.17998451 -0.63693392 0.054346602
-0.046193492 0.1759733 6.6741176 0.4878346 0.71929127 -0.49460846 0.057730403
-0.07483422 -0.34912387 6.9620681 0.54720086 -0.39544198 -0.73769706 0.080302984
0.10451548 0.076548144 6.6128554 0.45839524 0.012568227 -0.8886596 0.15142885
-0.076133601 -0.45610502 7.0447721 0.68747699 -0.52252764 -0.50432152 0.016868096
0.16157897 0.055373617 6.6340351 0.51854634 0.014787889 -0.85492176 0.1402626
0.16008674 0.088097773 6.6593957 0.74259186 -0.18248223 -0.64440489 0.14771283
0.1628429 -0.027941553 6.6618619 0.52833581 -0.57181209 -0.62760842 0.052313197
0.16252171 -0.016870771 6.6635489 0.52949178 -0.55872309 -0.63833135 0.042444859
0.1539351 -0.040758304 6.6977901 0.55699521 -0.53828096 -0.63246334 0.051459476
0.17357673 -0.013821608 6.662261 0.68012476 -0.39809027 -0.61559272 0.038976047
0.18703964 0.044944309 6.6439781 0.57829195 -0.20721626 -0.78907537 0.12577522
0.19037017 0.0085588126 6.6562653 0.61025405 -0.1749429 -0.77264804 0.11348707
0.18681902 -0.012313527 6.6999106 0.68317437 -0.47619614 -0.55363339 0.04966931
0.21259996 0.023180896 6.6825843 0.8559503 -0.21331716 -0.47100416 0.12480699
0.05475121 -0.10663473 7.3644633 0.44888186 -0.65281051 -0.61019957 0.15301578
0.33746812 0.32157058 6.916903 0.64702553 -0.18237785 -0.74033535 0.051452938
0.17987536 -0.63715976 7.3927245 0.42082039 -0.43651378 -0.79521447 0.047853108
0.20425911 -0.65824324 7.3808827 0.4208205 -0.43651375 -0.79521441 0.047853198
0.33702141 -0.010824692 7.032917 -0.42990491 0.05691272 -0.90107864 0.16632862
0.36723757 0.14966361 6.9941363 0.69355601 -0.19611256 -0.69319546 0.0375816
0.35783252 -0.013165403 7.0241532 -0.66763061 0.27342904 -0.69246364 0.14830302
0.4361276 -0.18214953 6.840971 0.18306033 -0.25470489 -0.94953382 0.072791159
0.37180135 -0.0081730979 7.0227928 -0.60792845 0.36503124 -0.7051065 0.16909061
0.46068108 -0.18240613 6.8456702 0.30268216 -0.31307137 -0.90020537 0.072359018
0.46459904 -0.14146701 6.8419232 0.47425485 -0.44918689 -0.75717467 0.087244302
0.44511434 -0.023084143 6.961071 0.3106288 0.5554744 -0.77133518 0.10406142
0.48459005 -0.13868131 6.8543282 0.6051994 -0.44979852 -0.65682191 0.082656488
0.49478155 -0.15377958 6.8601222 0.71344 -0.47382101 -0.51623338 0.10408632
0.48518327 0.55525237 6.9275165 0.53651553 -0.35949302 -0.76348919 0.034164421
0.48890066 -0.062595986 7.001224 0.30009177 0.59670073 -0.74423993 0.078303643
0.48591235 0.027161663 7.1587048 0.63668799 -0.45357278 -0.6236186 0.063747369
0.55421013 0.51444548 7.0039768 0.53588825 -0.25257093 -0.80562502 0.031415433
0.55361158 0.49456686 7.0105343 0.48238039 -0.26938486 -0.83351117 0.033139303
0.55837053 0.52699256 7.0166001 0.53588825 -0.25257093 -0.80562508 0.031415481
0.59386003 -0.27002519 7.1312771 -0.8396824 0.51701587 -0.16621709 0.032910369
0.79596436 0.2105888 7.3667817 0.62185395 -0.49130064 -0.60985357 0.10335964
0.82325667 0.22378282 7.3908114 0.75188935 -0.26529002 -0.6035592 0.15627113
1.3860196 -0.76327842 8.3963013 -0.9082697 -0.094326861 -0.4076131 0.13492173
1.3805484 -0.7731061 8.4811411 -0.027085854 -0.90259898 -0.42962942 0.06729082
1.3642533 -0.88333178 8.7444696 -0.32752764 0.94382471 -0.043825597 0.17304903
1.4009128 -0.68619686 8.6911716 -0.041966718 0.55024439 -0.83394837 0.10191068
1.4156078 -0.6898405 8.6867743 -0.041966703 0.55024457 -0.83394831 0.1019107
1.4852283 -0.73604113 8.5878525 0.50567526 0.84372884 -0.1800395 0.10239763
1.5326365 -0.69822633 8.8106461 0.56843567 -0.66020966 -0.49092177 0.22420073
1.5498276 -0.7048285 8.7950783 -0.6736753 0.26601321 -0.68949151 0.14705952
1.5548749 -0.69416857 8.7984343 -0.75886112 0.40709487 -0.50833428 0.1426024
1.5501329 -0.90840852 8.9790087 -0.071122319 -0.7318629 -0.67773026 0.1437277
1.5608569 -0.92321646 8.9961538 0.29359925 -0.57181323 -0.76604772 0.15866634
1.565393 -0.94179761 8.9877176 0.29359937 -0.57181275 -0.76604807 0.15866624
1.5977062 -0.95420253 8.9961586 -0.21601801 -0.81924242 -0.53120434 0.084892519
1.6781893 -0.95969826 9.0405283 0.077965684 0.31448543 -0.94605511 0.17710376
1.7022275 -0.91460121 8.9996166 -0.99700624 0.041121554 -0.06547837 0.10393585
0.072597429 0.40626159 6.6796455 0.34853527 0.22807613 -0.90912288 0.10553835
0.28077292 0.40091354 6.8455811 -0.10310508 -0.80118448 -0.58946824 0.045334209
0.23986773 -0.15406039 7.041223 -0.60447717 0.34707904 -0.71703804 0.011316856
0.4248988 -0.20207964 6.845561 0.062756151 -0.31445149 -0.9471969 0.084772199
-0.22223771 0.40332505 6.4139643 0.59745032 -0.13870049 -0.78981978 0.039542139
-0.13699807 0.2331728 6.538619 0.45690393 -0.32293189 -0.82882673 0.020111289
0.034942921 0.22574989 6.6428027 0.30880308 0.19609448 -0.93069196 0.030282738
0.12615694 0.076322712 6.5638466 0.35077965 0.0010379918 -0.9364574 0.12280189
0.13778578 0.02815018 6.6195307 0.39790568 -0.20529842 -0.89416081 0.062087957
0.15260433 0.039802473 6.630712 0.58831799 -0.16851828 -0.7908752 0.081482664
-0.068713382 -0.29523516 6.9973779 0.5472008 -0.39544189 -0.73769712 0.08030311
-0.057480212 -0.32688707 6.9976339 0.54720092 -0.39544189 -0.73769701 0.08030311
0.19833176 0.71068209 6.5983529 0.57234269 -0.40159249 -0.71494579 0.0080753621
0.17073816 0.045554452 6.6822605 0.45536953 -0.069004677 -0.88762438 0.10868005
0.17820604 0.033185516 6.6732349 0.32963359 0.11373343 -0.93723339 0.17158645
0.19636382 0.021303156 6.6632862 0.49984723 -0.031778023 -0.86553037 0.1681821
0.19113991 -0.013517291 6.6896772 0.74514163 -0.41713926 -0.52034491 0.05144095
0.23653103 0.70281786 6.6274319 0.58392292 -0.3947162 -0.70938933 0.005612833
0.2765778 0.40316063 6.8561163 -0.10310531 -0.80118448 -0.58946812 0.045334272
0.42319164 -0.1694839 6.865972 -0.77192533 0.3667174 -0.51927799 0.12793317
0.42436242 -0.23189324 6.8684826 0.3327001 -0.56568164 -0.75452965 0.032467533
0.37744731 -0.010446126 7.0076275 -0.57770044 0.38375857 -0.7204107 0.074731298
0.44222966 0.53719521 6.9334006 0.575131 -0.31938121 -0.75314009 0.027261358
0.42182815 -0.017858343 6.9924321 -0.38051677 0.58684784 -0.71471441 0.037407104
0.43367821 -0.027412442 6.9856606 -0.28410172 0.54806364 -0.7867099 0.046815187
0.48878253 -0.085290045 6.889894 -0.86459738 -0.48177972 -0.1426872 0.10685547
0.3094683 -0.31049135 7.2343283 0.043891124 -0.67149872 -0.73970473 0.020205392
0.42422679 0.22069108 7.0220442 0.7496137 -0.1799845 -0.63693392 0.054346595
0.49608758 -0.14777857 6.8874745 0.64082968 -0.56789625 -0.51655698 0.093169905
0.43382934 0.12074671 7.0210562 0.70448893 -0.22154653 -0.67424965 0.030104809
0.36383876 0.68429881 7.3011451 -0.6541431 -0.74985248 -0.099086612 0.032547891
0.48011991 0.041858792 7.1698723 0.63668835 -0.45357224 -0.62361866 0.063747227
0.50494331 0.13781284 7.1849766 0.67134064 -0.24596626 -0.69914401 0.024840508
0.54556209 -0.30775067 7.1689987 -0.83968246 0.51701581 -0.16621707 0.032910276
0.58899391 -0.27381563 7.1459317 -0.83968222 0.51701599 -0.16621718 0.032910399
0.60984528 -0.32088685 7.1273937 -0.83968234 0.51701581 -0.16621718 0.032910485
0.5895009 0.42532504 7.6336832 0.52557659 0.84392917 -0.10748421 0.0074749305
0.74071664 0.1967441 7.3452959 0.54933637 -0.66832924 -0.50156313 0.079776756
0.81151021 0.26945582 7.3597722 0.01891936 -0.3850939 -0.92268354 0.17257348
0.96967375 -0.622558 7.9508438 -0.64606237 -0.66826278 -0.3688201 0.1806048
1.0747916 -0.025243761 7.7493272 0.49431962 -0.4072513 -0.76798087 0.015201969
1.3598216 -0.69286674 8.6494808 0.046220191 0.96528864 -0.25706336 0.11988617
1.3747743 -0.92988229 8.7807541 0.61924338 0.64738768 -0.44432732 0.13460632
1.3979803 -0.68845624 8.7083988 0.091951668 0.88059151 -0.46486929 0.13830575
1.4124765 -0.69230032 8.7053833 0.065100513 0.71835589 -0.69262314 0.12516585
1.4210576 -0.89210224 8.7434855 0.034901179 0.62433827 -0.78037399 0.142528
1.4777108 -0.80062914 8.5806971 -0.89117777 0.45309934 -0.022431569 0.099522702
1.4888164 -0.78362697 8.5827789 -0.90615958 0.38942796 -0.16498715 0.1113911
1.4814696 -0.73879594 8.6110983 0.47279406 0.86927688 -0.14430328 0.070974663
1.4968565 -0.75657892 8.6040249 0.54832369 0.76155901 -0.34549811 0.13733371
1.5041461 -0.78019494 8.5899086 -0.92198646 0.38020265 -0.073395431 0.11265814
1.4355811 -0.96590537 8.912344 0.63823652 -0.59607249 -0.48718756 0.072888032
1.486979 -0.83851367 8.7942877 0.6272608 -0.70996588 -0.32014412 0.078974336
1.5110039 -0.74137747 8.7346888 0.43457788 0.54779804 -0.71488416 0.15768956
1.5071633 -0.73609644 8.7519903 0.41298896 0.82265878 -0.39073336 0.14415449
1.4626938 -0.93143201 8.9672871 0.58273906 -0.52740586 -0.61827034 0.067229673
1.4928197 -0.8625769 8.9346161 0.71695518 -0.45806256 -0.52550358 0.13456939
1.523213 -0.737764 8.8339443 -0.0040547131 -0.96986312 -0.24361673 0.10337576
1.5358477 -0.69621825 8.789423 -0.14433137 0.98604977 -0.08291132 0.24549957
1.5467709 -0.70719397 8.8154945 -0.71316278 0.68692309 0.13977015 0.22113211
1.5529112 -0.69694316 8.8115873 -0.22320418 0.1866744 -0.95673013 0.17478381
1.5457212 -0.89182645 9.0149755 -0.11711532 -0.72433311 -0.67943037 0.13777573
1.5921509 -0.66595989 8.8791895 0.81085867 -0.51868975 -0.27105209 0.048305377
1.6053125 -0.62328452 8.9167767 -0.63010442 0.77480769 0.051395908 0.10719272
1.5921087 -0.96032834 9.0360327 -0.22563781 -0.94595706 -0.23292241 0.10488904
1.6096275 -0.86704355 9.0111551 0.081520349 0.64072835 -0.76342756 0.10230211
1.6765176 -0.9618715 9.0533133 0.015612651 0.30704895 -0.95156562 0.17379874
1.6958247 -0.92134559 9.0496683 0.8399536 -0.11419863 -0.53050607 0.2020632
-0.058963612 -0.29515296 6.9813228 0.54720086 -0.39544186 -0.73769712 0.080303051
0.97756982 -0.6226384 7.9298964 0.3039932 -0.35408303 -0.88442826 0.11978953
1.0597177 -0.4253917 7.9664001 0.67458189 -0.70794272 -0.20918024 0.1415233
1.3933609 -0.74751586 8.2818041 0.058723051 -0.99162012 -0.11506997 0.14567751
-0.49638441 0.47018582 6.4616027 0.64396113 0.34624627 -0.68222255 0.12237312
-0.069158927 0.59968609 6.4629464 0.54467618 -0.42259559 -0.72438997 0.00757503
0.051939193 0.22467776 6.6157227 0.18441077 0.22165595 -0.95752877 0.034664303
0.11827299 0.69763279 6.5549393 0.57234263 -0.40159243 -0.71494567 0.0080754329
0.10712403 -0.031869818 6.6351652 0.41768271 -0.51909906 -0.7457059 0.046547659
0.07706397 0.41683251 6.6715531 0.34853402 0.22807863 -0.90912277 0.10553893
0.17197308 0.0074981023 6.6405015 0.64509118 -0.4074592 -0.64640111 0.051192429
-0.13597094 -0.51908392 7.0489006 0.68252909 -0.55147606 -0.47961271 0.019324193
0.1822482 -0.0005077385 6.6531334 0.617374 -0.42531031 -0.66178584 0.065363064
0.17208847 -0.03677642 6.6729274 0.58926213 -0.60266656 -0.53811073 0.053607129
-0.13604499 -0.55693835 7.0635786 0.53105181 -0.53245217 -0.65914989 0.022036765
0.18561617 0.034110334 6.6608825 -0.78552347 0.12080538 -0.60692579 0.2456699
0.1863201 0.019623626 6.661407 0.77495056 -0.2600382 -0.57604843 0.14705303
0.20593981 0.014513511 6.6704297 0.68313128 -0.41560769 -0.6005013 0.14090058
-0.08186467 -0.45566079 7.0561533 0.69182181 -0.5318715 -0.48835987 0.015979273
0.21653326 0.028214745 6.6962657 0.7632165 -0.34176761 -0.54835713 0.11763676
0.29225695 0.40207264 6.8283267 -0.10310434 -0.80118442 -0.58946842 0.045334205
0.44512007 -0.19036803 6.847609 0.22787756 -0.36795846 -0.90148681 0.077362247
0.44712403 0.56758511 6.8838096 0.53651601 -0.35949245 -0.76348919 0.034164526
0.44212899 -0.11145166 6.9075346 -0.63072497 0.34346482 -0.6958577 0.058569867
0.44727135 0.3752138 6.9877725 0.60129267 -0.55534416 -0.57449114 0.011674371
0.21367346 -0.64190948 7.3943367 0.42082039 -0.43651375 -0.79521447 0.047853079
0.35810301 0.68695778 7.3124237 -0.63844943 -0.7646066 -0.088085979 0.029700242
0.61286604 -0.23808917 7.1569114 -0.83968222 0.51701599 -0.16621718 0.032910399
0.62583888 -0.2154382 7.1414957 -0.83968252 0.51701576 -0.16621703 0.032910336
0.9293834 -0.57579821 7.8813143 0.93885171 -0.30403498 -0.16161728 0.15372565
1.3394088 -0.69573647 8.6261463 0.046220452 0.96528846 -0.2570639 0.11988632
1.3442383 -0.70008028 8.7026682 0.053715076 0.87447792 -0.48208207 0.13196428
1.368078 -0.88380319 8.7317734 -0.26361895 0.96437347 -0.022111421 0.1756456
1.3857141 -0.92398608 8.7425318 0.32845086 0.82904816 -0.45254743 0.24369618
1.4609494 -0.73912734 8.614152 0.14434318 0.94413984 -0.29625148 0.093047611
1.4373704 -0.95379704 8.7412319 -0.09799514 -0.31948966 -0.94250906 0.15427329
1.5177318 -0.76188713 8.6313829 0.51491767 0.82411551 -0.23599434 0.054742925
1.5287732 -0.76789033 8.6483269 0.5507347 0.78511715 -0.28334153 0.053045742
1.4387176 -0.96301514 8.9009686 0.7578671 -0.4639771 -0.45865333 0.060599279
1.5270717 -0.78305018 8.7014694 -0.76899886 0.39272711 -0.50438678 0.15773471
1.4989718 -0.83421892 8.8253212 -0.85842562 0.48078829 0.17874014 0.063253112
1.4547479 -0.95006788 8.9750299 0.5527333 -0.36121523 -0.75100559 0.070543744
1.5535635 -0.7391904 8.7866983 -0.68415445 0.42968094 -0.58932763 0.18474184
1.5096879 -0.81963623 8.9192171 -0.91230506 0.37527475 -0.16391616 0.16005985
1.5452943 -0.75982565 8.9230204 -0.86733353 0.43350473 -0.2445531 0.16991472
1.5482243 -0.89348012 9.0050955 -0.11711448 -0.72433263 -0.67943096 0.13777587
1.5509596 -0.76589984 9.0545454 -0.67972302 0.72581667 0.10567337 0.053744767
1.6076418 -0.69909686 9.0757542 -0.77536976 0.63106817 0.023554463 0.047962189
1.631119 -0.67380548 9.086051 -0.83130246 0.55208623 0.064320207 0.059352007
1.6551402 -0.83990735 9.0626059 -0.95002937 -0.033754606 -0.31033012 0.10507993
0.052717023 0.66952044 6.5020156 0.57234269 -0.40159246 -0.71494573 0.0080753844
0.041484781 0.22529459 6.6282868 0.32486281 0.22511598 -0.9185788 0.031059062
-0.11254904 0.32405946 6.8512964 -0.43348309 0.65969354 -0.61391932 0.12894127
0.48411801 -0.14618346 6.8628635 0.52289569 -0.6893748 -0.50134069 0.094496891
0.50768113 -0.12353154 6.8691716 0.86337423 -0.14574586 -0.48305598 0.13590634
0.62223661 -0.19556676 7.1937356 -0.8396824 0.51701581 -0.16621716 0.032910395
1.3781748 -0.9271602 8.7609015 -0.17299652 0.19006602 -0.96640944 0.17007327
0.34741312 0.28141445 6.9101024 0.66994977 -0.20348652 -0.71397513 0.043009821
1.3970605 -0.73753089 8.2241983 -0.21311121 -0.95409054 -0.21046361 0.12000249
1.3916354 -0.74992299 8.3086958 0.63727427 0.76596802 -0.08470206 0.13981071
1.3900146 -0.75354666 8.3339491 -0.84687763 -0.52700078 -0.0711933 0.12372522
1.3882662 -0.75749296 8.361207 -0.40092719 -0.91371089 -0.066255406 0.15065564
1.3849313 -0.76513648 8.4132462 -0.8912639 -0.15451305 -0.42635009 0.1355162
1.3776497 -0.7816748 8.5269775 0.46377844 0.88034296 -0.099527895 0.079009473
1.4818656 -0.79916245 8.5703392 -0.93392736 0.34881499 -0.078153096 0.10944951
-0.51768821 0.4641301 6.4090357 0.83791703 -0.27141842 -0.47352618 0.21157843
-0.53790915 0.46546516 6.4296608 0.83791703 -0.27141836 -0.47352618 0.21157835
-0.52330041 0.45347214 6.4503083 0.83791679 -0.2714186 -0.47352651 0.21157841
-0.51067913 0.47392923 6.4764571 0.64173484 0.20302232 -0.73956633 0.13167654
-0.50034249 0.46668386 6.4954734 0.50470346 0.17905262 -0.84452027 0.11434262
-0.14600705 0.23137939 6.5478058 0.45690393 -0.32293195 -0.82882673 0.02011135
0.098247007 -0.02634149 6.6484413 0.39465928 -0.54317349 -0.74108469 0.042372204
0.088901982 0.4194991 6.6571889 0.57650006 -0.10679013 -0.81008869 0.027017193
0.18305472 0.0070894924 6.6673441 0.70257294 -0.40064973 -0.588108 0.098557428
-0.070303962 -0.25748083 6.9235873 0.37788248 -0.56614739 -0.73258585 0.074569941
-0.054725386 -0.2420534 6.9271708 0.35282069 -0.58858305 -0.72738409 0.059809208
0.19992542 0.0065063653 6.7015953 0.72695148 -0.41287166 -0.54870623 0.072517201
0.21932629 0.041818704 6.7044435 0.80865753 -0.36131576 -0.4642455 0.11237212
-0.14317933 -0.54332846 7.0695024 0.68252921 -0.55147606 -0.47961229 0.019324118
-0.14775549 -0.55871534 7.0782399 0.47384065 -0.51269186 -0.71597636 0.023085568
-0.095431857 -0.45673436 7.0733418 0.69463378 -0.54797089 -0.46605995 0.019476732
0.015776671 -0.28857362 6.96487 0.18937008 -0.60296887 -0.7749629 0.037355833
0.34758919 0.35527915 6.8909473 0.56198359 -0.22674333 -0.79546338 0.043252196
0.41814896 -0.23322248 6.877696 0.35669598 -0.5538978 -0.75230664 0.034083314
0.50921971 -0.12670214 6.8786144 0.86337417 -0.14574571 -0.48305604 0.13590623
0.4471229 0.20583424 7.0520997 0.74961376 -0.17998466 -0.63693392 0.05434658
0.50148481 0.037693132 7.1813946 0.63668847 -0.45357224 -0.6236186 0.063747264
0.51247174 0.13460717 7.174449 0.67059898 -0.22488289 -0.70691204 0.024780074
0.57889122 -0.31040308 7.1588607 -0.8396824 0.51701587 -0.1662171 0.032910336
0.58217442 -0.27982286 7.1565766 -0.83968228 0.51701599 -0.16621718 0.032910369
0.58933389 -0.27150592 7.1591268 -0.83968234 0.51701593 -0.16621712 0.032910399
0.33484557 -0.57613516 7.4572806 0.4208203 -0.4365139 -0.7952143 0.047853198
0.63897884 -0.22609404 7.1611724 -0.8396824 0.51701581 -0.16621709 0.032910366
0.81854063 0.26929769 7.349277 0.91747177 0.16790985 -0.36062685 0.17268647
0.76613361 -0.39469531 7.4258771 0.90525204 0.30488434 -0.29591253 0.035755496
1.024637 -0.43768683 7.9178667 0.76383996 -0.56573498 -0.31063223 0.14492974
1.0180137 -0.4513022 7.9458551 0.53393257 -0.82844245 -0.16911274 0.13689971
1.3485509 -0.70111138 8.6922989 -0.079230033 0.98658103 -0.14276032 0.099016793
1.3906856 -0.9229098 8.7304335 -0.30158481 -0.84724462 -0.43729076 0.2202137
1.5043663 -0.76455766 8.5627604 -0.93478978 0.35460803 0.020522531 0.10651539
1.4424216 -0.94154054 8.7300749 0.96761483 0.0092716813 -0.25226089 0.16490291
1.5372454 -0.77798879 8.6682501 0.53284425 -0.82074773 -0.20603439 0.15370528
1.5156735 -0.74161208 8.7223625 -0.7448594 0.068950579 -0.6636492 0.085745469
1.4859866 -0.83639276 8.805212 0.65466237 -0.69653577 -0.29369223 0.072637439
1.5449165 -0.79092687 8.7259932 -0.52068871 0.37983418 -0.76459748 0.19108547
1.5043449 -0.83264464 8.8115864 -0.81915891 0.54632175 0.17467476 0.070691362
1.5469098 -0.74379176 8.803937 0.10323426 0.983289 -0.14995132 0.17328507
1.5000095 -0.8244797 8.9443846 0.97686839 -0.011670182 -0.21352284 0.15630692
1.5433347 -0.88056237 8.9497299 -0.23878388 -0.65873754 -0.71347535 0.12197629
1.530383 -0.8828212 8.9840317 -0.071761094 -0.58350706 -0.80893129 0.1074769
1.6178446 -0.65763468 9.0146866 0.76617181 -0.53382635 -0.35778514 0.098213315
1.6677712 -0.89801306 8.9583168 0.47616628 -0.27280787 -0.83596742 0.077094071
1.6806203 -0.82468069 8.9762268 0.88902426 0.25201443 -0.38226253 0.14632469
1.684998 -0.82176286 8.9911356 -0.94633496 -0.29273 0.13696435 0.1166851
-0.51462638 0.4521358 6.4433703 0.83791685 -0.27141857 -0.47352657 0.21157844
-0.087599248 -0.45674521 7.0656157 0.69463307 -0.54797089 -0.466061 0.019476846
0.026865501 -0.59582102 7.2321944 0.64383388 -0.20575778 -0.73698145 0.020417387
0.42759061 0.12291525 7.0330229 0.7024526 -0.21393079 -0.67881811 0.032913893
0.6138348 -0.21880524 7.1664033 -0.83968228 0.51701599 -0.16621718 0.032910399
1.0080687 0.097690612 7.599484 0.32434228 -0.66686475 -0.67089009 0.0060149343
-0.022456771 -0.28878143 7.0025458 0.26918757 -0.51524466 -0.81367129 0.088785186
0.4913426 -0.15553878 6.8695979 0.7217083 -0.5324198 -0.44234192 0.071553856
1.1333524 -0.62351096 8.0101976 0.17923793 0.96411783 -0.19583306 0.05576928
-0.36957246 0.28158367 6.3908544 0.17741443 -0.37436792 -0.91014993 0.10472911
-0.31005996 0.50532043 6.3836036 -0.22488609 0.45547631 -0.86137539 0.055881418
-0.31170657 0.34730762 6.3951783 0.1226729 -0.36708644 -0.92206234 0.10860611
0.11664841 0.020935953 6.6090164 0.13895598 -0.1862611 -0.97262436 0.063433863
0.11056499 -0.024215113 6.6290984 0.38966969 -0.53699356 -0.74819475 0.050664369
0.14667213 0.0041886619 6.6151633 0.47434616 -0.37493646 -0.79650384 0.052178532
0.19681698 0.043501444 6.6393685 0.70200121 -0.03077269 -0.71151066 0.102741
0.19720192 0.018480236 6.6521811 0.7470302 -0.39209005 -0.53685308 0.17372692
0.2153734 0.051872149 6.6586838 0.65503627 -0.098595396 -0.7491371 0.12931503
0.21748784 0.039371613 6.6597362 0.60490113 -0.13817094 -0.78422153 0.13648891
0.18715623 -0.033017911 6.6929841 0.67089725 -0.60276014 -0.43194562 0.052045655
0.20433623 -0.011611227 6.6882105 0.67666471 -0.50474423 -0.53605801 0.064559482
0.2107335 0.0042446116 6.6911187 0.77743864 -0.41396832 -0.47351807 0.079405598
0.23575515 0.05181253 6.6854858 0.77885056 -0.17317164 -0.60282946 0.10876178
0.35929805 0.35423371 6.878799 0.54689449 -0.27102914 -0.79211718 0.041467652
0.35370478 0.28841496 6.9020572 0.66994983 -0.20348655 -0.71397507 0.043009844
0.40811384 0.35198137 6.9246225 0.60210657 -0.29106587 -0.74347049 0.031923547
0.41605842 -0.16255751 6.9497857 -0.58509558 0.37826675 -0.71734059 0.061702091
0.38049641 0.14898035 6.9816909 0.67571926 -0.19037597 -0.71215194 0.042429749
0.37412426 0.038159318 7.0213566 0.48746401 0.0084379585 -0.87310225 0.18076859
0.38695928 0.045962512 7.0326672 0.48746318 0.0084381988 -0.87310278 0.18076859
0.39201245 0.033313084 7.0391212 0.7457363 -0.14183359 -0.65096903 0.18302152
0.4543862 0.20643079 7.0441566 0.74961376 -0.1799845 -0.63693392 0.054346576
0.45511341 0.19577751 7.0476236 0.7496137 -0.17998454 -0.63693392 0.054346617
0.49912643 0.070935421 7.126936 0.71397424 -0.292142 -0.63631278 0.044755314
0.5125975 0.038471371 7.1687851 0.63668829 -0.45357242 -0.6236186 0.063747287
0.52839434 0.13474162 7.1563549 0.66542399 -0.21639121 -0.71441299 0.024265841
0.56300515 0.23962432 7.1347032 0.62080067 -0.42765173 -0.65705442 0.01461431
0.57211488 -0.28465095 7.1498642 -0.83968228 0.51701593 -0.16621713 0.03291034
0.58436793 -0.29252797 7.144825 -0.83968234 0.51701587 -0.16621713 0.032910336
0.6034677 -0.27213445 7.1428156 -0.8396824 0.51701587 -0.16621709 0.032910369
0.58155584 0.1911884 7.1786804 0.69304341 -0.2659215 -0.67005712 0.021531582
0.40941969 0.53341269 7.5153599 0.052671183 -0.79333371 -0.6065042 0.0077305739
0.82167083 0.24879183 7.3211665 0.61737996 0.066280991 -0.7838679 0.14484446
0.81926388 0.21140715 7.3349109 0.74520373 -0.40904561 -0.52664316 0.082569778
0.77704692 -0.28537074 7.5585475 0.83661389 -0.064043678 -0.54403645 0.031245226
0.71463758 -0.085329272 7.6365118 0.6503793 -0.24594767 -0.71869093 0.030676568
1.038424 -0.44886741 7.8799872 0.62851346 -0.40496376 -0.66405964 0.15700702
1.1254215 -0.60987401 7.955152 0.63468111 -0.2691415 -0.72439134 0.10456623
1.3031253 -0.71825337 8.2603483 0.41355681 0.91047603 0.0020467388 0.11511922
1.4897703 -0.82084733 8.5627432 -0.87801391 0.46111232 -0.12832382 0.1079603
1.5123007 -0.76359022 8.5481749 -0.91225398 0.40783867 0.038214229 0.089943126
1.4272498 -0.89386046 8.7244091 -0.35009861 0.59178883 -0.72609705 0.13157798
1.4893496 -0.81130117 8.6876154 -0.69672722 0.71658272 -0.032868691 0.12502813
1.4570953 -0.84957969 8.7527399 -0.74238479 0.64978158 0.1632441 0.051928945
1.5266604 -0.73546237 8.7058964 -0.70696217 -0.69848472 -0.11101089 0.12868416
1.5534265 -0.77101731 8.6748095 -0.52565122 -0.85032278 -0.025336768 0.14485584
1.5464021 -0.69973427 8.7732773 0.40299737 -0.18057123 -0.89721072 0.22846051
1.5602646 -0.7071926 8.7835855 -0.68043888 0.23438662 -0.69430971 0.14248815
1.4431638 -0.93012655 8.9881182 0.6359362 -0.46188354 -0.61826265 0.058534916
1.505095 -0.8383714 8.9087915 -0.99759662 0.064468257 0.025394745 0.15658295
1.4850428 -0.89846021 8.9555054 0.52308804 -0.53144848 -0.66628927 0.074258007
1.5827326 -0.65729815 8.8119307 0.61140072 -0.70456457 -0.36024719 0.087565124
1.6201146 -0.70621604 8.7678766 0.40440768 0.24997211 -0.87975472 0.15969017
1.5229292 -0.90267932 8.9529476 0.3737379 -0.51836127 -0.76916951 0.10384433
1.5354869 -0.88226444 8.9739742 -0.39097589 -0.66290289 -0.63851196 0.10645558
1.5823972 -0.71200794 9.0076904 0.54260558 -0.51696992 -0.66205841 0.086175084
1.598057 -0.73411763 9.0064211 0.54260564 -0.51696992 -0.66205835 0.086175106
1.5463494 -0.76000363 9.0931406 -0.66468215 0.74479461 0.058978926 0.048938662
1.5997574 -0.71472943 9.0297861 0.72100747 -0.60571474 -0.33653802 0.09744516
1.6246068 -0.65808105 9.0009613 0.45287913 -0.73290837 -0.50768673 0.15469731
1.6319304 -0.70957023 9.0376949 0.85980839 -0.46188036 -0.21770655 0.056624811
-0.90038413 0.67376614 6.0651708 0.50354832 -0.4689135 -0.72564399 0.002523775
-0.49354294 0.42303476 6.4446135 0.29990956 -0.40507925 -0.8636927 0.13883278
-0.48823622 0.51144481 6.4962921 0.67968893 0.28435731 -0.676139 0.11186311
0.17289181 0.70217156 6.5623555 0.57234269 -0.40159246 -0.71494579 0.0080753611
0.13820216 0.0048113433 6.621264 0.47877881 -0.36411378 -0.79886925 0.053133566
0.18788454 -0.072818324 6.7220497 0.64257419 -0.50774395 -0.57384181 0.049211875
0.30504963 0.40225521 6.8114176 -0.10310585 -0.80118477 -0.5894677 0.045334004
0.39926401 0.35203031 6.9318337 0.60210663 -0.29106593 -0.74347037 0.031923547
0.37886 0.045914784 7.0393944 0.48743415 0.0084494175 -0.87311888 0.18076774
0.41806915 0.12494497 7.0419917 0.71413577 -0.20175986 -0.67030066 0.040386885
0.51923668 0.13509695 7.1643872 0.66542357 -0.21639097 -0.71441346 0.024265775
0.75611228 0.19845596 7.3198786 0.54064268 -0.6846596 -0.4888218 0.081616566
0.80963266 0.21147364 7.3442125 0.74520379 -0.40904543 -0.52664334 0.082569756
1.4862207 -0.80202919 8.5594921 -0.87801391 0.46111223 -0.12832382 0.10796028
-0.52516109 0.46492362 6.4158235 0.83791727 -0.27141839 -0.47352591 0.21157819
-0.50270635 0.47303271 6.4701662 0.64173466 0.20302245 -0.73956639 0.13167648
0.4870947 -0.15178609 6.9045634 0.50287902 0.22692026 -0.83403832 0.2171887
0.61831141 -0.21979138 7.1571302 -0.83968234 0.51701599 -0.16621719 0.032910399
-0.88667089 0.6723069 6.0579877 0.48676035 -0.49083292 -0.7225976 0.0025875934
0.48928666 0.55253625 6.916204 0.53651547 -0.35949305 -0.76348937 0.034164328
0.74530309 0.19788106 7.3301392 0.54933643 -0.66832948 -0.50156277 0.07977663
1.1307324 -0.62115407 7.9919095 0.033620674 -0.98955125 -0.1402068 0.075721823
1.1394554 -0.63187677 8.0519724 0.1792376 0.96411788 -0.19583261 0.055769108
-0.24521056 -0.22052887 6.7660294 0.53343081 -0.52915668 -0.65988249 0.0082338396
0.12911944 0.019456809 6.6212401 0.4257119 -0.37339115 -0.82422596 0.065139018
0.16684486 0.055249806 6.6231003 0.51854622 0.014787864 -0.8549217 0.14026259
0.17770118 0.071752548 6.6280217 0.70514852 0.15159117 -0.6926657 0.12310099
0.16216022 -0.00063586008 6.6480174 0.55642813 -0.50676072 -0.6584689 0.052988898
0.176947 -0.024728261 6.6734324 0.5660091 -0.57807881 -0.58775717 0.065915331
0.20146944 0.031134123 6.6619067 0.70788383 -0.38242441 -0.59384519 0.2072538
0.2045912 0.050541911 6.6665506 0.63389254 -0.086710937 -0.76854503 0.20403822
0.23655613 0.054745879 6.7010436 0.77504766 -0.27687821 -0.56801367 0.11848214
0.32352802 0.40227759 6.7970605 -0.079930037 -0.86212701 -0.50034809 0.032441538
0.32426405 0.25125009 6.8942318 0.6257447 -0.17774723 -0.75950599 0.04640526
0.058508758 -0.56960958 7.2047482 0.61763525 -0.2768628 -0.7361207 0.021276606
0.38262811 0.031676341 7.0422087 0.51110142 -0.15181038 -0.8460077 0.1318724
0.4420059 0.19659404 7.05866 0.74961376 -0.17998463 -0.63693392 0.054346647
1.0015389 -0.4535799 7.9214125 0.84793645 -0.4454419 -0.2873767 0.1727064
1.1907078 -0.59697175 8.1097021 0.2668424 0.96072435 -0.076182574 0.062451709
1.1504253 -0.60335654 8.1584845 0.26684222 0.96072441 -0.076182485 0.06245159
1.3884069 -0.71221101 8.3946943 -0.81226116 -0.49366924 -0.31068057 0.17356168
1.3522538 -0.70079523 8.6808481 -0.079230048 0.98658097 -0.14276038 0.099016823
1.4821538 -0.81680596 8.5826626 -0.89117777 0.45309943 -0.022431487 0.099522769
1.5107367 -0.78029484 8.5695515 -0.9327541 0.36047924 0.0049592122 0.11641646
1.4156423 -0.68476868 8.6957254 -0.041966718 0.55024445 -0.83394831 0.10191068
1.5246241 -0.76869333 8.587656 0.94085419 -0.16710855 -0.29473397 0.12523057
1.5329568 -0.75438988 8.6209221 0.61288983 0.74758857 -0.25588539 0.059812415
1.4347535 -0.88249594 8.7379475 -0.40366516 0.57642734 -0.71048301 0.11715676
1.543896 -0.76627594 8.6228456 0.47593117 0.85197395 -0.21824282 0.045503967
1.4453386 -0.92524761 8.7422256 -0.19137415 -0.093901873 -0.97701502 0.10816864
1.4389447 -0.89191532 8.7506113 -0.93850285 0.1838378 -0.29226044 0.14775293
1.5593415 -0.76951933 8.6662722 0.39189103 0.91392583 -0.10564572 0.16966401
1.4896019 -0.81457049 8.7471495 0.58440167 -0.77296156 -0.24699226 0.081127562
1.4931122 -0.72248369 8.8020086 0.11502951 -0.98301101 -0.14302993 0.090370424
1.4249468 -0.92282003 8.8861437 0.826877 -0.42923409 -0.36336276 0.056707323
1.5637395 -0.66304266 8.7766151 -0.53374356 0.60445178 -0.59140164 0.12088637
1.5890836 -0.65597725 8.802494 -0.67114753 0.73516136 0.095387809 0.15738526
1.5117595 -0.8360005 8.8989515 0.97240931 -0.0146675 -0.23281951 0.13053635
1.6220474 -0.71337706 8.7815723 0.015546236 0.39031032 -0.92055213 0.17283364
1.6391182 -0.70945066 8.7945061 -0.29484507 0.41480115 -0.86081731 0.15039591
1.5868138 -0.7921347 8.9108162 -0.016997259 -0.246503 -0.96899295 0.11194639
1.5425504 -0.8791548 8.9634037 -0.2836487 -0.64483386 -0.70974135 0.11427532
1.5868615 -0.80041891 8.9215002 -0.016997224 -0.24650308 -0.96899295 0.11194637
1.5880476 -0.90227121 8.9466591 -0.17968372 -0.72178972 -0.66838121 0.11488866
1.5595549 -0.74527925 9.0096645 0.69238168 -0.49739698 -0.52268904 0.076637864
1.5986435 -0.71439314 9.0116863 0.54260552 -0.51696992 -0.66205847 0.086175032
1.630209 -0.65521288 8.9924145 0.53666747 -0.71695143 -0.44493672 0.16153586
1.6939234 -0.81971723 8.9748354 0.92488027 0.20598358 -0.31963608 0.14024067
1.6813375 -0.84965366 9.0588951 -0.99819732 0.01537482 -0.058015596 0.10498458
0.64822298 -0.21956682 7.4470773 0.9204154 0.26909253 -0.28359252 0.02916101
1.0220641 -0.45162645 7.9037895 0.76383984 -0.5657351 -0.31063232 0.14492984
1.5468689 -0.78279722 8.7409658 -0.40104145 0.72880334 -0.55498785 0.18360889
0.96149904 -0.41951475 7.8564172 0.62850833 -0.40496275 -0.66406518 0.15700668
1.125634 -0.64907342 8.1187534 0.26684245 0.96072435 -0.076182604 0.062451713
1.5348828 -0.76667732 8.6328411 0.54509372 0.79458022 -0.2674233 0.040277932
1.568759 -0.77536976 8.919631 -0.095960818 -0.30365533 -0.94793725 0.11527116
-0.40521732 0.25812197 6.3605738 0.17741495 -0.37436819 -0.91014963 0.10472915
-0.34428343 0.31791443 6.3564172 0.0012732423 -0.26386833 -0.96455783 0.10972547
-0.33896366 0.35521281 6.355206 0.001273329 -0.26386845 -0.96455783 0.10972563
-0.32381245 0.33972445 6.3527236 0.0012733082 -0.26386839 -0.96455783 0.10972568
-0.38025486 0.31925806 6.3727145 0.1286758 -0.28631237 -0.94945657 0.10532586
-0.36907163 0.26932549 6.3939629 0.17741443 -0.37436798 -0.91014981 0.10472925
0.078658164 0.67376971 6.4821653 0.57234257 -0.40159243 -0.71494573 0.0080752904
0.15335962 -0.0048789997 6.6525712 0.5241034 -0.36532164 -0.76932162 0.064945236
0.25543064 0.70948583 6.6127977 0.58392292 -0.39471611 -0.70938939 0.0056127869
0.13823482 -0.053333092 6.6736884 0.40003145 -0.63704711 -0.65889746 0.032395609
0.18120655 0.068085589 6.6635108 -0.44839582 -0.6977576 -0.55863726 0.15374532
0.21866991 -0.012623589 6.726974 0.78076655 -0.37549305 -0.49940822 0.044311933
-0.27698034 0.31398138 6.9833131 0.23906133 0.90462315 -0.35285506 0.18343593
-0.058262359 -0.27173692 6.9607711 0.37788227 -0.56614727 -0.73258597 0.074570082
-0.031052288 -0.33448634 7.0181713 0.41693619 -0.51357406 -0.74993718 0.11040682
0.46779314 -0.15070216 6.8366113 0.47971132 -0.39619151 -0.78288519 0.077832974
0.46936101 0.38524342 6.9629607 0.6434142 -0.47859743 -0.59746361 0.0088515067
0.3808631 -0.003207007 7.0256 -0.60793215 0.36503318 -0.70510232 0.16909085
0.033209909 -0.75411445 7.1909885 0.69562113 0.14411031 -0.70380634 0.0091515621
0.37980416 0.0062600207 7.0584779 -0.16620538 0.13299859 -0.97708094 0.11941633
0.5694949 0.49498889 6.9719591 0.5358882 -0.25257093 -0.80562508 0.031415481
0.57603794 0.48886117 6.9904833 0.48238045 -0.26938489 -0.83351117 0.033139277
0.4953469 0.026721397 7.149827 0.63668835 -0.45357215 -0.6236186 0.063747212
0.63594872 -0.20572029 7.1805687 -0.83968246 0.51701576 -0.16621709 0.032910336
0.77633727 0.22132482 7.2995687 0.51207131 -0.63439864 -0.57906944 0.072205141
0.65649968 -0.22443394 7.4409075 0.92003781 0.27950674 -0.27460206 0.0232396
1.1065696 -0.23612098 7.8353314 0.27316469 -0.38101208 -0.88329548 0.067159787
1.0767269 -0.50941038 7.8608932 0.26203936 -0.24908753 -0.93235761 0.163721
0.80442214 -0.31567124 8.2327118 -0.68677193 0.35326493 -0.63525444 0.051100682
0.79860169 -0.30124199 8.2373753 -0.68677408 0.35326102 -0.63525426 0.051100399
0.97034127 -0.48577556 8.1435862 -0.62717503 -0.77062541 -0.11308382 0.069444545
1.2531521 -0.6423583 8.2197552 -0.37417161 -0.92113739 -0.10724521 0.034521218
1.3570468 -0.71920091 8.4265976 -0.31366023 -0.62064707 -0.71861982 0.11092094
1.3749546 -0.7086798 8.5970163 0.13113582 0.87125766 -0.47298363 0.072687633
1.4959846 -0.78877068 8.5009556 -0.90397978 0.28475162 -0.3189624 0.10279238
1.5007485 -0.7649734 8.5110483 -0.9004066 0.34310785 -0.26747879 0.10905847
