# .PCD v0.7 - Point Cloud Data file format
VERSION 0.7
FIELDS x y z rgb
SIZE 4 4 4 4
TYPE F F F U
COUNT 1 1 1 1
WIDTH 1065
HEIGHT 1
VIEWPOINT 0 0 0 1 0 0 0
POINTS 1065
DATA ascii
-0.22554818 0.13752277 2.0710208 4278584582
-0.19468495 0.049294639 2.0814011 4287933632
-0.23499572 0.13245021 2.0600624 4282008390
-0.24471284 0.073412269 2.0528188 4285698217
-0.2297302 0.0061568283 2.0513983 4284050555
-0.25029841 0.064870931 2.0411086 4283396236
-0.25696102 0.089097589 2.0361114 4283588717
-0.26123899 0.083942816 2.0283546 4281219398
-0.26319987 0.071992517 2.0230663 4280561205
-0.27434152 0.11052237 2.0146768 4284448151
-0.2658489 0.12339025 2.0172167 4280826699
-0.14904951 0.099961892 2.0548697 4280626481
-0.27097374 0.072779611 2.0118566 4281220688
-0.27078649 0.064205818 2.0052078 4288130754
-0.22995318 -0.22596654 2.0124409 4289840332
-0.1489422 -0.28365496 2.0350919 4286681759
-0.11204273 -0.31346771 2.0329385 4285893274
-0.21834651 0.057809487 1.997016 4283392370
-0.19398254 0.0032648726 2.0024226 4279114276
-0.15099031 -0.30482507 2.0053072 4290037204
-0.19019036 0.001756856 1.9910721 4281483595
-0.19850972 -0.22727337 1.9854074 4283983977
-0.25458506 0.030609213 1.9685652 4282010203
-0.25429845 0.059766278 1.9678586 4280431425
-0.16270421 -0.29125577 1.9934796 4289642700
-0.19044426 -0.0014119114 1.9794 4282141009
-0.15569268 -0.30368671 1.983413 4290234323
-0.13091463 -0.31953898 1.9854124 4289905359
-0.17350146 -0.017258374 1.9412855 4289971922
-0.13150045 -0.31737098 1.9449034 4285367961
-0.064522319 -0.2256273 1.9086994 4278716938
-0.093433134 0.063478835 1.8261145 4283203232
-0.053742032 0.034532409 1.8141456 4282536792
-0.063109487 0.035087824 1.8049618 4281812301
0.019838948 -0.12502161 1.7665943 4286815662
0.018351912 0.064759478 1.6877832 4280957759
0.074462354 0.0079688737 1.681821 4280036144
-0.019298458 0.16817413 1.7304914 4281216557
-0.23823334 0.069709845 1.9175446 4288066500
-0.15231191 0.15595745 1.7460525 4282992709
0.051645812 0.18101709 1.7859207 4289111709
-0.18344565 0.15387198 1.7496614 4282730054
0.11790615 0.1858075 1.780136 4289111709
-0.13433522 -0.31350332 2.0176661 4288459202
-0.1426008 0.14800276 2.1428196 4289177502
-0.19591555 0.030393505 2.107553 4286223269
-0.18111683 0.010498414 2.1124384 4289643216
-0.20128788 0.047231469 2.0958021 4279510840
-0.15948321 0.099593192 2.0514607 4280626481
-0.200372 0.0032145707 2.0004566 4279114276
-0.2584227 0.036401667 1.9737576 4280496186
-0.19633983 0.0016805839 1.9892195 4281483595
-0.18163061 -0.017177973 1.9390683 4289971922
-0.14136928 0.16247691 1.8029611 4289111966
-0.067623146 0.034913506 1.8040947 4281812301
-0.14151791 0.14818293 2.1429048 4289177502
-0.18098019 0.06981694 2.1317101 4280429876
-0.16850002 0.12687142 2.1340876 4283193950
-0.12613247 0.13597302 2.1430035 4278913803
-0.19058724 0.071889959 2.1233721 4284117116
-0.16212772 -0.01875392 2.1288469 4280034861
-0.17532079 0.0085937856 2.1224256 4280825407
-0.19380988 0.054648392 2.1174204 4283722625
-0.17946416 -0.0024336227 2.1193092 4283459708
-0.20374382 0.079850793 2.1130941 4280364599
-0.17845698 0.14919302 2.1159904 4289177503
-0.19847113 0.025807645 2.111228 4285696153
-0.20575537 0.057700966 2.1094635 4282012260
-0.19091555 0.010181022 2.1117947 4289643216
-0.17676775 -0.014816628 2.113883 4285696669
-0.20131697 0.039192457 2.1071327 4284840326
-0.21533331 0.080774315 2.1041532 4284317074
-0.20904687 0.12773344 2.101944 4282994510
-0.17036162 -0.022486849 2.1085384 4291483358
-0.22294281 0.080647655 2.0966015 4280429361
-0.2204169 0.063531399 2.0963728 4284709774
-0.20508222 0.044195384 2.097152 4280760906
-0.20161569 0.021693286 2.0967371 4284841104
-0.22255142 0.11295751 2.0924642 4282601042
-0.22799571 0.072510302 2.0903754 4284644239
-0.20723364 0.037755396 2.089453 4282537833
-0.23568776 0.071386501 2.0818124 4283130226
-0.23908727 0.080675885 2.0803642 4280825149
-0.23628911 0.12860849 2.0781357 4281680458
-0.20306946 0.027398206 2.0831549 4283855754
-0.24341932 0.10838117 2.0752084 4282866801
-0.22880897 0.057081211 2.0769267 4289446611
-0.16048799 -0.014361918 2.0851943 4282736245
-0.15119633 -0.02266451 2.0867569 4285565599
-0.25007406 0.089131877 2.0679767 4282803839
-0.20169495 0.034828659 2.0749002 4280035635
-0.2496113 0.075214483 2.065428 4287014332
-0.21208179 0.047481131 2.0713842 4287801275
-0.24478912 0.064928979 2.0631397 4283791251
-0.21759172 0.053634778 2.0638859 4282733143
-0.24296777 0.0025741674 2.0586832 4285234830
-0.24982767 0.13130026 2.0573208 4282074183
-0.2560876 0.069470413 2.0540218 4284381073
-0.26029497 0.082205363 2.0528142 4283655797
-0.26101685 0.095303029 2.0520601 4283129193
-0.23998427 0.017774066 2.0549703 4283129451
-0.24812177 0.063686728 2.0501676 4285764267
-0.24433966 0.0058684298 2.048769 4284050555
-0.23988724 -0.005337039 2.0493553 4282731858
-0.24265376 0.053617492 2.0477693 4281879642
-0.26714718 0.10056288 2.0420494 4281746511
-0.26345536 0.067558013 2.0423746 4286421424
-0.26805207 0.083046466 2.0401218 4285168778
-0.23356688 0.023849046 2.0453138 4282865247
-0.25966069 0.059448205 2.0355513 4288265430
-0.17081308 0.098498479 2.051069 4282798430
-0.27280378 0.092824005 2.0332117 4282535773
-0.2327839 -0.0090863667 2.040045 4281812044
-0.2716009 0.075215541 2.0319662 4284181886
-0.26966181 0.064704515 2.0311816 4285894307
-0.2338945 0.0007560844 2.0362966 4284180588
-0.27706498 0.083027437 2.0256517 4281350469
-0.2288277 -0.015840797 2.032944 4283852396
-0.252514 -0.21062329 2.0279751 4285037188
-0.28050217 0.13181049 2.0226934 4282536284
-0.28565925 0.11568893 2.0193479 4282799460
-0.27811942 0.071208172 2.0205564 4280429620
-0.28304085 0.09057457 2.0188329 4283720818
-0.22927262 -0.0066278758 2.0275578 4279048222
-0.15983708 -0.27532801 2.0365849 4281417547
-0.21856655 0.0014841876 2.0270569 4282734689
-0.10620412 -0.30910733 2.0433652 4289961863
-0.28892714 0.1092269 2.0122716 4284579993
-0.19336116 -0.064331345 2.0277457 4285230953
-0.28681019 0.082880676 2.011955 4282338906
-0.28901362 0.13169231 2.0091794 4282142555
-0.29306728 0.11957912 2.008502 4281287249
-0.28614748 0.068387754 2.0095117 4285631909
-0.24537623 -0.21588168 2.0157585 4279641387
-0.24509205 -0.20502977 2.0154037 4282338896
-0.11779213 -0.31358725 2.035311 4279903017
-0.29014 0.096189626 2.0055594 4284313985
-0.21536754 -0.0029251976 2.0157268 4281352005
-0.17012799 -0.14039458 2.0223641 4282995541
-0.24224718 -0.2242952 2.0104785 4289576904
-0.24258476 0.060346201 2.0099373 4280561205
-0.23123124 0.048092365 2.0114701 4284443504
-0.12532617 -0.3128432 2.0276544 4287537843
-0.28972229 0.079500534 2.0007632 4286748843
-0.29462606 0.11358652 1.999845 4284117893
-0.17859492 -0.094797596 2.0178533 4281218097
-0.10972124 -0.3207314 2.0281861 4289445839
-0.24520032 -0.1934393 2.0063114 4279640358
-0.29508087 0.09975832 1.9971762 4286354598
-0.17427574 -0.11004124 2.0125782 4281152050
-0.21339221 -0.011579834 2.0057683 4281088062
-0.29279673 0.13605486 1.9930696 4278321923
-0.22695298 -0.21173345 2.0027776 4288590782
-0.18308933 -0.17278454 2.0089386 4278980624
-0.18160261 -0.14467315 2.0079603 4284246378
-0.29601467 0.10906921 1.990607 4280298808
-0.17441252 -0.12296768 2.0087945 4284509034
-0.15922375 -0.30375963 2.0109358 4289774547
-0.29359707 0.076875173 1.9891409 4281746772
-0.17819493 -0.1329802 2.006181 4282536790
-0.29425284 0.089349337 1.9879843 4284380037
-0.20736882 0.0031087205 2.0003908 4279114533
-0.2029217 -0.025787137 2.0003324 4281219648
-0.17187504 -0.28998944 2.0047131 4289181892
-0.23249565 0.057057053 1.994879 4283457906
-0.29895476 0.12388702 1.9848397 4285103755
-0.17334922 -0.14386964 2.0002475 4284641392
-0.21378055 -0.21645997 1.9937629 4283720289
-0.16931351 -0.12639874 2.0001373 4284772204
-0.29895502 0.11187045 1.9779913 4285036676
-0.29458022 0.077727087 1.9780688 4280823864
-0.20247024 0.0068183723 1.990805 4279640362
-0.29526046 0.089127034 1.9771171 4281549393
-0.17059305 -0.13460527 1.993678 4282336837
-0.16684756 -0.11160184 1.9939532 4281613374
-0.20508838 -0.0031299063 1.9881743 4279443495
-0.17460714 -0.28979763 1.991753 4289511115
-0.20787792 -0.014430922 1.9864928 4281483334
-0.12823832 -0.32120791 1.9968152 4289904845
-0.29239306 0.068847969 1.9732016 4282340455
-0.21221694 -0.226393 1.983435 4284115563
-0.29687831 0.10395816 1.970037 4281022530
-0.16716535 -0.30020371 1.9877535 4289840593
-0.26753646 0.031426791 1.9735073 4285695899
-0.16341129 -0.12456676 1.9860169 4282732882
-0.16349441 -0.16735633 1.9848284 4282930777
-0.19355533 -0.1792313 1.9799856 4279113500
-0.29729739 0.090171665 1.965637 4286156446
-0.20099691 -0.024074636 1.9786294 4289248458
-0.16699512 -0.13389896 1.9830412 4281942851
-0.20333591 -0.0015942092 1.9775969 4282404182
-0.18536155 -0.19408149 1.9789985 4279705894
-0.29459074 0.13420346 1.9639058 4280693303
-0.18897329 -0.26067674 1.9778829 4285432201
-0.19455111 -0.034749322 1.9770383 4282075213
-0.14124723 -0.31803024 1.983978 4290037202
-0.26148432 0.046650972 1.9661204 4280363309
-0.27194029 0.048119843 1.9646366 4281812817
-0.29641858 0.11468235 1.9601468 4284973455
-0.29553339 0.1028737 1.9596356 4280101683
-0.16806772 -0.14291929 1.9766316 4285036148
-0.27247626 0.035068415 1.961689 4281944410
-0.15006728 -0.31156415 1.9775243 4290497237
-0.16013891 -0.12575154 1.9745849 4282799446
-0.19140494 -0.040369555 1.9692802 4283129194
-0.28887647 0.072558708 1.9558679 4285305261
-0.20007659 -0.010840138 1.9675107 4282470489
-0.18448713 -0.26437363 1.9680668 4283258968
-0.29210147 0.13345177 1.9538927 4282142295
-0.2908017 0.085002281 1.9527408 4280561462
-0.18084954 -0.049424507 1.9670819 4282795843
-0.17424779 -0.18954444 1.9672642 4282536791
-0.29239309 0.1232174 1.9517833 4281880156
-0.20045385 -0.024417816 1.9633868 4286156702
-0.16314524 -0.13239557 1.9675286 4279244828
-0.16600628 -0.14280039 1.9667656 4284968809
-0.28955778 0.10575087 1.9496531 4281944147
-0.27179465 0.042042095 1.9515485 4281483594
-0.15916359 -0.15028358 1.9653722 4281614404
-0.15733705 -0.12386028 1.9643179 4279968807
-0.18668345 -0.045483507 1.9586133 4283128678
-0.18083254 -0.27577966 1.9591368 4284774531
-0.17800897 -0.26056764 1.9587023 4281483330
-0.16579719 -0.18373579 1.9593197 4279574050
-0.28180566 0.0971561 1.9445994 4281811266
-0.28437132 0.13027358 1.9436785 4282667866
-0.15912949 -0.14386192 1.9577765 4284573537
-0.28233153 0.080354683 1.9422258 4282801777
-0.15481387 -0.17192721 1.9580162 4283982432
-0.28102583 0.14137685 1.9421932 4278518788
-0.19537063 -0.015783094 1.9505444 4290168788
-0.15686575 -0.12922028 1.9549599 4279968549
-0.15653636 -0.30499145 1.9543415 4281285702
-0.17359973 -0.058562044 1.9517915 4284178530
-0.2822752 0.11954869 1.9381464 4280100654
-0.18205346 -0.051472668 1.9504461 4285365638
-0.19291766 -0.027764691 1.9475158 4283194984
-0.16689448 -0.28752217 1.9500591 4288129975
-0.19018269 -0.037342351 1.9459445 4284050811
-0.27633029 0.098163292 1.9350812 4281285955
-0.15135173 -0.17540631 1.9479567 4284640362
-0.1733451 -0.080648191 1.9453242 4284442467
-0.27192935 0.07725127 1.9325073 4283984753
-0.16035222 -0.14473996 1.9455165 4284706926
-0.15396699 -0.13278051 1.9451191 4281021494
-0.16430493 -0.2524963 1.943597 4282338639
-0.2705929 0.1118409 1.9305993 4284906892
-0.15093492 -0.31090948 1.9443808 4289906385
-0.16285548 -0.081901304 1.9427091 4281942853
-0.15956378 -0.29961842 1.9428755 4280298030
-0.18371661 -0.046878293 1.9400995 4289576391
-0.19045368 -0.017327378 1.9392579 4290169044
-0.26974785 0.087706015 1.929595 4280692531
-0.17633568 -0.058258243 1.9388447 4281613116
-0.15936385 -0.092214845 1.9406894 4282666060
-0.25676581 0.044169519 1.9281569 4285104785
-0.16445513 -0.07254412 1.9375968 4284905345
-0.26295328 0.13159734 1.9257462 4282339411
-0.14811014 -0.18172775 1.9386628 4280364337
-0.26480454 0.079794019 1.9252064 4285499287
-0.15675014 -0.28950015 1.9362093 4282075210
-0.26531929 0.11919243 1.9238063 4283262582
-0.26440069 0.098899603 1.9232678 4284642431
-0.1521883 -0.14276351 1.9344407 4280232751
-0.14729089 -0.13052112 1.9338216 4280034602
-0.15303722 -0.22225662 1.9329791 4279968551
-0.17968333 -0.033474397 1.9294311 4287011236
-0.15189619 -0.27859488 1.9322311 4281153852
-0.15467265 -0.30432141 1.931749 4286157217
-0.17736988 -0.053587794 1.9291058 4289642955
-0.14704935 -0.31116655 1.9321718 4288657091
-0.15276925 -0.24322166 1.931471 4283852906
-0.25633806 0.079381026 1.9186664 4281944915
-0.15115754 -0.25484949 1.9298942 4281746761
-0.15204622 -0.20732664 1.92979 4284641650
-0.16485149 -0.067987375 1.9280561 4287537838
-0.25478297 0.12327318 1.9163021 4279969067
-0.257274 0.11078211 1.9159383 4280364080
-0.25939941 0.095586695 1.9150621 4284579729
-0.22498627 0.013632953 1.9171323 4287013039
-0.14359169 -0.23260008 1.9248633 4286286990
-0.1443229 -0.1503486 1.9247398 4281811526
-0.1406913 -0.20038816 1.9244479 4280363822
-0.25364596 0.086052813 1.9118052 4281023297
-0.17440371 -0.049702637 1.9202881 4281745990
-0.14255594 -0.13420768 1.9234594 4280956733
-0.16732083 -0.05992103 1.9195803 4289445319
-0.2483677 0.11247931 1.9105182 4283327342
-0.1632989 -0.069689788 1.9183218 4282140491
-0.13868269 -0.27644733 1.9204688 4286287770
-0.13720386 -0.25257945 1.9203852 4282403919
-0.24301575 0.07973095 1.9075785 4280892486
-0.24518541 0.092913263 1.9072956 4284449946
-0.21550757 0.023779916 1.9091976 4289577679
-0.24538994 0.10276956 1.9060262 4284710025
-0.15589498 -0.079015158 1.9147167 4284710543
-0.23964922 0.12919039 1.9055384 4278981141
-0.1251618 -0.31035644 1.9169464 4282471257
-0.13685258 -0.15844153 1.915614 4286879647
-0.13593179 -0.26363942 1.915396 4282798932
-0.13436799 -0.13855483 1.9151241 4282469709
-0.24095964 0.11771019 1.9036063 4283326309
-0.16200495 -0.057961836 1.9103459 4283324248
-0.23743004 0.094430767 1.9004318 4282012256
-0.14839599 -0.084892683 1.9088875 4289511627
-0.12456645 -0.22899806 1.910198 4279575340
-0.11850794 -0.282323 1.910704 4284313209
-0.12977032 -0.15351896 1.9093558 4286483342
-0.072093055 -0.3084048 1.9143332 4282471257
-0.23478511 0.1081989 1.8974439 4283986562
-0.23028463 0.085523658 1.8965939 4285040021
-0.19873819 0.010806866 1.8989894 4287867575
-0.1542802 -0.058678903 1.9026452 4281087545
-0.14779487 -0.074315846 1.9032589 4289116611
-0.22910553 0.096695341 1.8941852 4285106589
-0.11992017 -0.14312023 1.9046273 4282404431
-0.089012496 -0.22310315 1.9063066 4278980626
-0.22959042 0.12434864 1.8926358 4284116603
-0.14093228 -0.087170698 1.8988767 4287274919
-0.22488745 0.11059373 1.8882622 4280628541
-0.22194114 0.096122585 1.8870928 4280300091
-0.14111745 -0.071266949 1.8945142 4283588713
-0.20641351 0.044351194 1.8859493 4284775302
-0.093278743 -0.28580508 1.8953938 4286024598
-0.21660668 0.13213728 1.88311 4282668894
-0.10141544 -0.26214224 1.8921288 4280760899
-0.080985866 -0.2959967 1.8938766 4290563285
-0.12534463 -0.091524698 1.8896437 4284377448
-0.18699218 0.025528109 1.8837548 4290037972
-0.11637643 -0.10247175 1.8890889 4289708489
-0.10631303 -0.27522388 1.8898301 4285301130
-0.21356232 0.098499991 1.8800268 4284317842
-0.21055689 0.086400352 1.8793147 4281026653
-0.17944303 0.019372264 1.8793278 4281022784
-0.20866901 0.11719292 1.876242 4283854716
-0.19665241 0.043454468 1.8772291 4280563264
-0.20083103 0.079876564 1.8741283 4280694076
-0.077975012 -0.28744918 1.8844328 4285498254
-0.20671597 0.10099617 1.8731478 4283330948
-0.12122627 -0.070066608 1.8799198 4288522927
-0.098916776 -0.24718021 1.8807077 4287012008
-0.095056437 -0.25695032 1.8797898 4287538868
-0.20006771 0.089798011 1.8707556 4285108646
-0.20092359 0.13923165 1.8696258 4281417280
-0.20216784 0.10954279 1.869294 4285104526
-0.18631168 0.044704292 1.8698181 4281220676
-0.11000728 -0.083102152 1.8759073 4284181358
-0.10585734 -0.095250204 1.8757404 4288852407
-0.08491271 -0.12323901 1.8773624 4285428073
-0.095570162 -0.1058312 1.8748802 4289049012
-0.16820672 0.023161445 1.8654082 4288986054
-0.0623888 -0.1410995 1.8731142 4290431440
-0.19303352 0.12945467 1.862255 4283787120
-0.19301586 0.093960553 1.8619627 4282012514
-0.093743548 -0.095458634 1.8692559 4284378738
-0.1907554 0.11525208 1.8604709 4280758838
-0.18589462 0.084029056 1.8601484 4281353549
-0.17632614 0.048268929 1.8601319 4280300094
-0.16275018 0.064553209 1.8596728 4283524713
-0.18560062 0.10253294 1.8564124 4280103486
-0.18390229 0.134615 1.8550851 4282669923
-0.18457028 0.11984961 1.8542154 4279969066
-0.11198805 -0.032109343 1.8577785 4287077799
-0.067190871 -0.12207364 1.860631 4286813081
-0.17933935 0.09058138 1.852159 4285305767
-0.17439321 0.077479966 1.8521662 4282606971
-0.051252831 -0.13501014 1.8586649 4286221460
-0.17423946 0.13562621 1.8465866 4282932582
-0.17026469 0.093325563 1.8457716 4285175469
-0.093622752 -0.054065831 1.8498899 4286288025
-0.097428404 -0.027777953 1.8486004 4286549908
-0.16941208 0.11094905 1.8416611 4284118147
-0.16268696 0.079946816 1.8397365 4282541948
-0.092637785 -0.019259045 1.8433923 4285168510
-0.16364397 0.099273048 1.8385342 4280761413
-0.16528428 0.11910573 1.8368441 4285629582
-0.16286336 0.13983414 1.836955 4279245344
-0.15839665 0.12653705 1.8358371 4281351746
-0.039947491 -0.11968154 1.8424201 4282799705
-0.086988255 -0.011576942 1.8390059 4280825916
-0.15954678 0.10618496 1.8324453 4280826950
-0.15602736 0.087097071 1.83196 4281619562
-0.15462698 0.11899738 1.827442 4284907663
-0.15358236 0.12963815 1.8253335 4280759610
-0.076832183 -0.0081214122 1.828029 4280102195
0.001738664 -0.14405537 1.832553 4286092196
-0.10311715 0.063203931 1.825543 4283861160
-0.14538875 0.088471621 1.8224334 4285238944
-0.062554307 0.0270121 1.8271341 4283392872
-0.14758487 0.10842752 1.8220289 4283659914
-0.14570142 0.13404974 1.8185786 4281416253
-0.07360284 -0.027929647 1.8204087 4283128677
-0.058912516 -0.072602816 1.8198546 4285367957
-0.086239278 0.0089975018 1.8164183 4278587672
-0.11226839 0.067464508 1.8149419 4283135895
-0.13400537 0.084196575 1.8136804 4280827983
-0.1363719 0.10902059 1.8118442 4280036920
-0.13707866 0.14264745 1.8116268 4282403145
-0.061758563 0.034591611 1.8137292 4282602328
-0.064147554 -0.052156735 1.812726 4284512133
-0.13487324 0.127197 1.8089256 4280956990
-0.067876637 -0.03685265 1.8111787 4284250508
-0.001320244 -0.13726692 1.8136654 4285894301
-0.073495738 -0.012888338 1.8098196 4279575081
-0.1220674 0.082659498 1.8033687 4283789183
-0.072518229 0.034860358 1.8045086 4281878095
-0.11974139 0.097715855 1.8003529 4281615174
-0.10959174 0.069342218 1.7998915 4279576369
-0.074796349 -0.0071057212 1.8001044 4284708740
-0.11804865 0.107659 1.7970388 4280299061
-0.11589663 0.13301553 1.7964621 4280232495
-0.11372115 0.087714747 1.7961881 4280761155
-0.074028626 0.04638382 1.7973304 4287278275
-0.072436072 0.0035978823 1.7966648 4282010966
-0.1096734 0.14093226 1.7933118 4280892229
-0.06946218 -0.015600096 1.7945875 4285170577
-0.063838065 -0.036998067 1.7947277 4285432719
-0.066028818 -0.024931701 1.7924626 4282668897
-0.10844143 0.12057573 1.7895856 4279705379
-0.088115729 0.04716533 1.7896974 4284187549
0.00037401941 -0.12944472 1.7918344 4286289830
-0.10487234 0.11256297 1.7849104 4283064425
-0.067072093 -0.0063986252 1.7860734 4283723650
-0.092318639 0.075986028 1.7836049 4285569198
-0.06263461 0.017671591 1.7827255 4278851874
-0.071588121 0.0034861739 1.7815535 4285236887
-0.097796395 0.09080974 1.7791897 4284583592
-0.095487759 0.11375718 1.778816 4280692786
-0.095465086 0.1467949 1.7771536 4282471771
-0.057785157 -0.023486231 1.7781421 4284906890
-0.065902755 0.010669891 1.7763568 4281614661
-0.059962332 -0.0059754006 1.7754364 4284051065
-0.092608534 0.10005621 1.7728844 4283266188
-0.070805691 0.07206092 1.7734072 4282737001
-0.074465431 0.053178888 1.7731707 4279180322
-0.090143092 0.13751027 1.7724991 4280626479
0.0063090334 -0.12070666 1.7742287 4286223009
-0.086652808 0.085288249 1.7711687 4281882476
-0.062480565 0.028158577 1.771188 4288724428
-0.068753473 0.037140477 1.7671678 4285700268
-0.049572498 -0.029306274 1.7669864 4283526269
-0.056992624 0.013197022 1.7652991 4284446594
-0.081755497 0.11807703 1.7644372 4283591285
-0.05514035 0.0016565695 1.7651532 4282736494
-0.057886433 0.074854411 1.7645355 4281486164
0.015637415 -0.12467362 1.766476 4287209905
-0.080807522 0.097695924 1.7625526 4281221192
-0.06793914 0.054214753 1.7628471 4285569199
-0.078027733 0.10751124 1.7611545 4283855747
-0.072688431 0.14646474 1.7583551 4282470997
-0.037770379 -0.045185126 1.7588782 4285170322
-0.070880607 0.094658166 1.757655 4281023811
-0.051060248 0.0064277286 1.7556738 4286420900
-0.049327802 0.022207461 1.7550279 4278916635
-0.053453919 0.080640718 1.7548388 4278720033
-0.0590422 0.051710781 1.7509927 4282211441
0.019472959 -0.11036013 1.7503824 4285696663
-0.06590537 0.1221067 1.7484076 4279639069
-0.06569735 0.1063709 1.746822 4280363823
-0.051580798 0.040420141 1.7443453 4282210150
-0.061383516 0.09762457 1.7436882 4281417281
-0.054109566 0.052076563 1.7421274 4285173150
-0.04928083 0.0278059 1.7420732 4284317846
-0.059154019 0.14283238 1.7415317 4283391326
0.010317612 -0.090991326 1.7410606 4285498772
-0.058324467 0.13072872 1.7382504 4282865503
-0.049995806 0.063494198 1.7370956 4282209886
-0.0049768686 -0.0640347 1.7361041 4285039505
-0.048595984 0.15020823 1.7343251 4281943881
-0.050629079 0.044452988 1.7340156 4282933616
-0.05434205 0.10911991 1.7337569 4283127642
-0.05248037 0.12331072 1.7331134 4284247931
-0.040984232 0.022987768 1.7327086 4280497724
0.037723396 -0.10795644 1.731665 4285960862
-0.049965743 0.097299784 1.7299601 4283262835
-0.045221675 0.13638073 1.7264949 4282141258
-0.038473871 0.15236631 1.724647 4280888876
-0.040366542 0.04012971 1.7237699 4287935940
-0.041469492 0.10181627 1.7231395 4282669406
0.040022571 -0.094291344 1.7231318 4288130488
-0.03011235 0.031507336 1.7217549 4281484619
-0.045204204 0.063812301 1.7215904 4280232495
-0.03677794 0.13292974 1.7184892 4283127895
0.019405201 -0.058890294 1.717175 4288722111
-0.035271313 0.11521263 1.7160294 4282800737
-0.0038717256 -0.023823526 1.7159568 4284972940
-0.03367652 0.094612531 1.715578 4284448655
-0.033478562 0.078863598 1.7137387 4284055701
-0.030949885 0.12683269 1.712744 4283258973
-0.03435754 0.10593986 1.712598 4283398286
-0.025039921 0.092260763 1.7076786 4285368472
-0.029738218 0.11331029 1.7069411 4281024327
-0.018194418 0.14817441 1.7034647 4281680709
-0.019535579 0.10360075 1.7016261 4283660167
-0.0097863628 0.0739972 1.7011201 4279641645
-0.015863363 0.090010732 1.6994321 4281286726
-0.016668407 0.11247335 1.698189 4282474349
-0.010377053 0.12929119 1.694364 4282733395
-0.008844519 0.054780677 1.6926025 4279509288
-0.009921466 0.091574088 1.6907728 4281023554
-0.0062067742 0.10304836 1.6887187 4279706667
-0.0011395892 0.064190403 1.6879241 4280431673
-0.0021885026 0.1199627 1.6838586 4279573536
0.0016834657 0.10503035 1.6804513 4279771686
0.0048881951 0.085505098 1.6774434 4280825402
0.0071111573 0.11220601 1.6752722 4282472032
0.047807224 0.14159796 1.6745224 4279243283
0.018826321 0.15437241 1.672605 4280957503
0.021993825 0.077444337 1.6669 4288528080
0.017110787 0.12012906 1.6668092 4280626479
0.023811998 0.095948987 1.6581829 4282538856
0.022214424 0.12605095 1.6567644 4282537312
0.03696141 0.14104721 1.6466445 4282603880
-0.17495172 -0.014857286 2.1127906 4285893790
-0.19445759 0.012984012 2.0981319 4285762721
-0.19955595 0.021713065 2.0954607 4284972432
-0.27058581 0.08432015 2.0300026 4280560691
-0.28041014 0.073504426 2.0139854 4280495668
-0.28728235 0.10940801 2.0104296 4284448151
-0.28676626 0.13191339 2.0073874 4282076762
-0.28861248 0.087565921 1.9932473 4279902243
-0.22511521 0.047163803 2.0038509 4280428588
-0.1973947 -0.010784333 1.9662172 4282865248
-0.12666284 0.13557467 2.1428835 4278913803
-0.17077608 0.051122747 2.1316924 4288856530
-0.1688707 -0.023278482 2.1205289 4284315018
-0.20127386 0.023276925 2.1115069 4281879644
-0.18032198 -0.014859874 2.1131487 4285696669
-0.20441787 0.020410491 2.1000657 4288854987
-0.22660537 0.11269364 2.0916522 4282601042
-0.20875034 0.029295033 2.09412 4282799974
-0.21091667 0.037648138 2.0887265 4282537833
-0.24009541 0.067900695 2.0809104 4281087807
-0.24372873 0.080445282 2.0794554 4280825149
-0.24144928 0.12798093 2.0771298 4281680458
-0.20740537 0.027285174 2.0823154 4283855754
-0.24810459 0.10806071 2.0743015 4282866801
-0.24064909 0.061967436 2.0727608 4285367967
-0.25471285 0.088812627 2.0670927 4282803839
-0.20551637 0.034706831 2.0741768 4280035635
-0.25447807 0.13092682 2.0564611 4282074183
-0.26405281 0.075541809 2.0518081 4280957002
-0.26752123 0.091208398 2.0481856 4282601305
-0.24512766 0.020365337 2.0501945 4280036152
-0.24880293 0.0057791164 2.0479658 4284050555
-0.24429463 -0.0053913575 2.048563 4282731858
-0.27232581 0.10021241 2.0411248 4281746511
-0.26810321 0.067349762 2.0415459 4286421424
-0.27297622 0.082784928 2.0392473 4285168778
-0.23606764 0.02626032 2.044121 4282207058
-0.27756736 0.092521526 2.0323808 4282535773
-0.27636784 0.074995406 2.0311387 4284181886
-0.27459192 0.064452887 2.0303285 4285894307
-0.23293141 -0.015847508 2.0322452 4283852396
-0.28304949 0.084906422 2.0230751 4283984249
-0.28555432 0.13139039 2.021837 4282536284
-0.28327361 0.070941851 2.0196898 4280429620
-0.23176934 -0.0065006479 2.0271397 4279048222
-0.25229523 -0.21141008 2.0209434 4288722885
-0.29655364 0.11424538 2.0123019 4283458679
-0.19683148 -0.064297855 2.0271747 4285230953
-0.29170722 0.082561798 2.0111499 4282338906
-0.29419446 0.13126406 2.0083344 4282142555
-0.29123405 0.06812761 2.0086825 4285631909
-0.24281722 -0.20545055 2.0157738 4282338896
-0.21794011 0.0046234019 2.0194459 4283654247
-0.29483771 0.095895216 2.004802 4284313985
-0.12426683 -0.311753 2.0309772 4286616996
-0.17342226 -0.14022607 2.0218375 4282995541
-0.3001177 0.11825049 2.0009966 4283656310
-0.21882749 -0.0078171147 2.0127304 4283720809
-0.29493454 0.079216711 1.9999365 4286748843
-0.24964952 -0.19305322 2.0056093 4279640358
-0.30011785 0.099433139 1.9963846 4286354598
-0.23166496 0.046906579 2.0046709 4280428331
-0.1776834 -0.10990372 2.0120487 4281152050
-0.30123916 0.10868227 1.9898037 4280298808
-0.17735913 -0.12284283 2.0083425 4284509034
-0.29863924 0.076594792 1.9883704 4281746772
-0.29918095 0.089043565 1.9872341 4284380037
-0.21584983 -0.010865607 1.9994967 4280956990
-0.2063596 -0.025789594 1.9998118 4281219648
-0.17517668 -0.28953448 2.0042133 4289181892
-0.29608786 0.065749355 1.9857336 4284248967
-0.23639943 0.056860425 1.9942896 4283457906
-0.30402559 0.12347557 1.9840744 4285103755
-0.17651714 -0.13060413 2.0016708 4280233008
-0.17696534 -0.14367235 1.9997088 4284641392
-0.29941475 0.077454336 1.9773585 4280823864
-0.30028912 0.088820785 1.9763806 4281549393
-0.11581153 -0.32629737 2.0021532 4285433756
-0.30177054 0.10097874 1.9745808 4285564826
-0.16952483 -0.11149525 1.9935638 4281613374
-0.2114711 -0.014455916 1.9859729 4281483334
-0.29757416 0.068576187 1.9724547 4282340455
-0.16825502 -0.12668392 1.9907855 4284310882
-0.17529251 -0.14270914 1.9887311 4281349688
-0.17314087 -0.29549402 1.988373 4283524205
-0.16677974 -0.16709575 1.9843662 4282930777
-0.29986489 0.086248398 1.9648904 4282076510
-0.2047815 -0.024108514 1.9780988 4289248458
-0.16989541 -0.13373925 1.9826351 4281942851
-0.20653462 -0.0016306622 1.9771496 4282404182
-0.29943129 0.13378057 1.9632311 4280693303
-0.1976818 -0.034737691 1.9766034 4282075213
-0.27462569 0.029902935 1.9657803 4282273376
-0.30109364 0.11429437 1.9595037 4284973455
-0.30076423 0.10248967 1.958918 4280101683
-0.17079435 -0.14269944 1.9762577 4285036148
-0.18873213 -0.26708689 1.9732171 4286088843
-0.27784675 0.042287081 1.9592592 4279968557
-0.15033554 -0.31438944 1.976079 4282997609
-0.16247505 -0.12563598 1.9742689 4282799446
-0.29382604 0.072388381 1.9552022 4285305261
-0.203363 -0.010869682 1.9670688 4282470489
-0.19481528 -0.037373453 1.966941 4289576391
-0.29660672 0.13305573 1.9532897 4282142295
-0.29553983 0.084716372 1.9521101 4280561462
-0.27360749 0.027930548 1.9548389 4287868098
-0.17723304 -0.18929295 1.9668684 4282536791
-0.29711384 0.12282147 1.9511565 4281880156
-0.20405309 -0.024416765 1.9629103 4286156702
-0.29397777 0.10543514 1.9490725 4281944147
-0.15979947 -0.16888644 1.9656856 4284048998
-0.16157433 -0.15013485 1.9650575 4281614404
-0.16000217 -0.12371083 1.9639714 4279968807
-0.18976459 -0.045481488 1.9582157 4283128678
-0.17986877 -0.25207841 1.9575585 4284904304
-0.16875528 -0.18359189 1.9589425 4279574050
-0.28547487 0.097130284 1.9441316 4281811266
-0.28919691 0.12986651 1.9430615 4282667866
-0.16483535 -0.13653018 1.9586687 4279376415
-0.2889221 0.11350596 1.9426328 4284776857
-0.15912747 -0.12904647 1.9546762 4279968549
-0.18496548 -0.051430721 1.9500833 4285365638
-0.19443397 -0.034485668 1.9465518 4286617767
-0.28112045 0.097853385 1.9344934 4281285955
-0.17426136 -0.061416112 1.9469491 4284374618
-0.15393861 -0.1751972 1.9476424 4284640362
-0.16761351 -0.080802597 1.946021 4284442467
-0.16306086 -0.14456162 1.945189 4284706926
-0.15638715 -0.13262971 1.9448282 4281021494
-0.18671015 -0.046815425 1.9397416 4289576391
-0.18911029 -0.03286751 1.9380075 4281877575
-0.27226567 0.091932133 1.9277081 4281022525
-0.1790712 -0.058217373 1.9385207 4281613116
-0.16176131 -0.092125915 1.9404057 4282666060
-0.26071408 0.044025488 1.9276917 4285104785
-0.16722576 -0.072470881 1.9372722 4284905345
-0.26900595 0.079516515 1.9247153 4285499287
-0.26765537 0.12678112 1.9248188 4278981140
-0.14946583 -0.13037214 1.933573 4280034602
-0.15214588 -0.14068386 1.9316418 4285101427
-0.1816842 -0.049533147 1.9268941 4288393662
-0.16740949 -0.068210617 1.9277697 4287537838
-0.14848515 -0.20153792 1.9283675 4284771945
-0.25848785 0.12307619 1.9158903 4279969067
-0.2595931 0.095679693 1.9144672 4284449174
-0.14634812 -0.15019505 1.9245178 4281811526
-0.16952837 -0.05987329 1.9193413 4289445319
-0.16136815 -0.076512739 1.9180346 4289116869
-0.24795535 0.11331537 1.9062701 4280758839
-0.24779859 0.098104 1.9058096 4281090379
-0.16140856 -0.060372129 1.9079666 4285365116
-0.23991151 0.11318967 1.8979758 4280165674
-0.14632675 -0.080388203 1.9011014 4282205766
-0.23095554 0.09957543 1.8909289 4283923342
-0.22586545 0.085881129 1.8894143 4284648094
-0.10217955 -0.26208359 1.8920593 4280760899
-0.20362324 0.044762898 1.8812557 4280430390
-0.2168207 0.098323323 1.879732 4284317842
-0.21136393 0.11686227 1.8760023 4283854716
-0.20930935 0.10087154 1.8729235 4283330948
-0.12305627 -0.07002224 1.8797618 4288522927
-0.0980094 -0.24381249 1.8796513 4282339154
-0.20282003 0.13479018 1.8691678 4282602844
-0.19538257 0.12923679 1.8620653 4283787120
-0.19300172 0.11502123 1.8602911 4280758838
-0.1919127 0.098418422 1.8590801 4284976289
-0.17061332 0.04325293 1.8560888 4281090120
-0.17881314 0.085970402 1.8517842 4285371303
-0.18148027 0.1206503 1.8505363 4283457636
-0.17174035 0.093096294 1.8456649 4285175469
-0.17254452 0.14285268 1.8449118 4281747276
-0.17107992 0.11078007 1.841545 4284118147
-0.16581117 0.09913788 1.838388 4280761413
-0.092322953 -0.021808365 1.8420566 4282536278
-0.16685341 0.11894851 1.8367389 4285629582
-0.16327561 0.13620126 1.8334193 4282275428
-0.1529502 0.082397357 1.8288713 4282276456
-0.15613358 0.11888315 1.8273488 4284907663
-0.15489811 0.12951081 1.8252535 4280759610
-0.07740929 -0.0080368696 1.8279948 4280102195
0.0034696844 -0.14410886 1.8326559 4286092196
-0.14681579 0.13390173 1.8185143 4281416253
-0.073177904 -0.027921537 1.8204324 4283128677
-0.058427814 -0.072575688 1.8198813 4285367957
-0.1126814 0.067419566 1.8149192 4283135895
-0.13477457 0.08411663 1.8136383 4280827983
-0.063850328 -0.052153014 1.8127415 4284512133
-0.067335606 -0.036846124 1.8112065 4284250508
0.00043812158 -0.13730405 1.8137546 4285894301
-0.11344007 0.061915964 1.8050466 4287080895
-0.07358972 -0.014294602 1.8037906 4284579472
-0.11790662 0.10757858 1.7970446 4280299061
-0.06911695 -0.015579976 1.7946025 4285170577
-0.063274175 -0.036962368 1.7947522 4285432719
-0.10840128 0.12060821 1.7895876 4279705379
-0.063842744 -0.025969345 1.7903454 4283655276
0.0021462347 -0.12947267 1.7919064 4286289830
-0.10264797 0.11160395 1.782178 4280035116
-0.06517639 0.0014828534 1.7792182 4283723133
-0.05683437 -0.023462433 1.7781758 4284906890
-0.073570155 0.052983157 1.7731994 4279180322
-0.087701686 0.1472939 1.7711939 4282142290
-0.066238247 0.040014248 1.7666647 4280695361
-0.055778995 0.013223919 1.7653347 4284446594
-0.054185059 0.0016781905 1.7651812 4282736494
-0.058167528 0.068865582 1.7614003 4278587155
-0.072170049 0.14657828 1.7583699 4282470997
-0.062547877 0.052072771 1.7581683 4280631122
-0.049403038 0.0064582913 1.7557148 4286420900
-0.04772586 0.022236973 1.755067 4278916635
0.021912431 -0.11035568 1.750434 4285696663
-0.065197907 0.12208342 1.7484221 4279639069
-0.051837109 0.076144122 1.7475718 4279180840
-0.056014389 0.049965661 1.7472117 4281817716
-0.064611405 0.10635861 1.7468438 4280363823
-0.050215751 0.040391874 1.7443715 4282210150
-0.059748787 0.097682267 1.7437193 4281417281
-0.050283372 0.088737756 1.7426304 4286161592
-0.054827426 0.11799802 1.7380108 4282733916
-0.055337783 0.13499539 1.7378664 4280033829
-0.048545565 0.063578472 1.7371187 4282209886
-0.042321518 0.15540999 1.7311633 4278387459
-0.041734584 0.090504155 1.7272638 4282145637
-0.027859701 0.031502016 1.721774 4281484619
-0.034490976 0.13304769 1.7185049 4283127895
-0.03302142 0.11529934 1.7160422 4282800737
-0.024597101 0.13423425 1.7094612 4283391846
-0.0072067305 0.12486957 1.6923878 4279639070
0.00080581364 0.12008833 1.6838307 4279573536
0.010233711 0.10449035 1.674879 4282339929
0.021116938 0.1203536 1.6667416 4280626479
-0.16231002 0.059590299 2.1444099 4285632160
-0.17039634 0.074116819 2.1419833 4282472036
-0.12722914 0.13518107 2.142916 4278781960
-0.17104386 0.11373604 2.1387863 4282536020
-0.1781562 0.060315553 2.136991 4284249993
-0.17533976 0.12642895 2.1335678 4283062364
-0.18777288 0.065858759 2.131602 4286352278
-0.18306102 0.095432967 2.1306231 4282667863
-0.19228065 0.05670619 2.1274238 4282405990
-0.19624087 0.075338282 2.1251326 4280627769
-0.19105926 0.11408062 2.1243687 4283063651
-0.20199095 0.062830754 2.1202729 4281944408
-0.18127626 0.0061439718 2.12163 4281351235
-0.20513587 0.077611297 2.118263 4280297260
-0.18693466 -0.0025197696 2.118794 4283064950
-0.21710891 0.083043203 2.1096153 4282472289
-0.2140253 0.10745429 2.1088095 4282076501
-0.2092656 0.13345253 2.1079016 4278847753
-0.22008391 0.054527517 2.1021907 4282540153
-0.22588797 0.066157803 2.1012328 4284247935
-0.22683437 0.077978112 2.1008785 4283788927
-0.23088107 0.11243235 2.0919919 4282535249
-0.21197475 0.027186116 2.0826972 4284644753
-0.16671391 -0.014417659 2.0848746 4282802295
-0.20063938 0.011340683 2.0814414 4284973464
-0.24691176 0.088610202 2.0790117 4279113246
-0.1744397 -0.0065104514 2.0814276 4282802556
-0.24688284 0.12745634 2.0776083 4281746508
-0.25303683 0.10774833 2.0747433 4282867057
-0.20954399 0.034616716 2.0745299 4279969585
-0.25598496 0.097520143 2.0717146 4283195503
-0.25183004 0.0024159199 2.0583305 4285300622
-0.077183627 -0.07439743 2.0607746 4280956993
-0.092760116 -0.070036992 2.0557678 4284380548
-0.10191171 -0.065436937 2.051744 4281943887
-0.11464354 -0.1490411 2.0441797 4284576379
-0.27273455 0.064082526 2.0383663 4283461512
-0.27278888 0.13117327 2.0368743 4281679940
-0.12979855 -0.14738217 2.0384564 4284771694
-0.16628093 -0.27460176 2.0364094 4281351753
-0.11188316 -0.31933862 2.0365539 4284181886
-0.12222352 -0.31309706 2.0351954 4279837223
-0.13420364 -0.29924694 2.0323329 4289182667
-0.29085052 0.13098054 2.0224702 4282798942
-0.17688344 -0.1400637 2.0222275 4283061078
-0.29189473 0.096347325 2.0192475 4279836711
-0.13957696 -0.31044906 2.0148945 4280693308
-0.15686731 -0.30448133 2.0109649 4289511119
-0.10864671 -0.33016071 2.0105479 4289050568
-0.29975736 0.095577225 2.0054386 4284445314
-0.17864159 -0.28907302 2.0046358 4289313477
-0.21717413 0.0097252848 2.0035045 4283522146
-0.1388946 -0.31618464 2.0043657 4284710035
-0.22152348 0.030560028 1.9951652 4280758329
-0.24048913 0.056611989 1.9948256 4283523441
-0.21200833 -0.0033646976 1.9881521 4279641131
-0.21149515 0.012194183 1.9863575 4282009164
-0.26382759 0.040234063 1.9852955 4282537311
-0.2632964 0.017821439 1.9778857 4285827739
-0.2098853 -0.0016870676 1.9776112 4282338389
-0.29799077 0.061653219 1.9706588 4287473342
-0.27093899 0.016353557 1.9593658 4286223275
-0.15829556 -0.22173113 1.9331061 4279836708
-0.15709573 -0.20686311 1.92992 4284510321
-0.18982065 -0.0031363179 1.9257003 4288854472
-0.26447845 0.068619154 1.9184071 4287737795
-0.10855406 -0.24065445 1.8903824 4286355107
-0.089017123 -0.25786972 1.8687894 4284180070
-0.17777386 0.068411395 1.8632237 4283589739
0.0022744122 -0.13738641 1.8133866 4285828764
0.0039946688 -0.12954637 1.7915174 4286355623
0.010424812 -0.12079699 1.7738359 4286223265
0.024451926 -0.11037754 1.7498562 4285630870
0.015903996 -0.091066442 1.7404438 4285566107
0.00025878698 -0.064004257 1.7355101 4285171092
0.042586733 -0.03391555 1.6971573 4284775305
0.075738333 0.17079502 1.6440345 4289111710
0.060459346 0.16386317 1.642537 4289177502
-0.19723158 0.15503938 1.8185306 4289111709
-0.22389445 0.15321697 1.828054 4289111966
-0.066340618 0.16789062 1.7713742 4289111709
-0.23258501 0.11233985 2.0904551 4282601042
-0.21347038 0.027140897 2.081141 4283855754
-0.21142553 0.034552995 2.0730581 4280035635
-0.2198478 0.14532569 2.0552869 4282072126
-0.25018311 -0.0054667378 2.0475042 4282731858
-0.24363641 -0.013011244 2.0408087 4284246124
-0.30575693 0.099069893 1.9954984 4286354598
-0.2996918 0.070595182 1.9961745 4283325546
-0.30847839 0.11213218 1.9814184 4283063404
-0.30457789 0.071569376 1.9746928 4285762206
-0.19309233 -0.2674877 1.9663481 4286879647
-0.0031825479 -0.137091 1.8135695 4285894301
-0.066940464 -0.03688601 1.7945927 4285432719
0.0019688311 -0.12741458 1.785424 4286288030
-0.062058453 0.02791559 1.7712005 4288724428
-0.054399274 0.009058835 1.7609084 4282537050
-0.050127786 0.02638879 1.7485323 4285238689
-0.18228379 0.063141838 2.1381714 4280430393
-0.19024415 0.095012441 2.1300862 4282667863
-0.18747959 0.12447131 2.1291313 4282405465
-0.19966112 0.056408186 2.1268814 4282405990
-0.20416181 0.083460413 2.1237965 4283260519
-0.20577325 0.071206644 2.122288 4284380287
-0.17994289 -0.023262195 2.1202505 4284775311
-0.19419208 -0.0026137626 2.1182935 4283064950
-0.22172946 0.068422146 2.1124411 4280823862
-0.19133139 -0.014976019 2.1129196 4285630876
-0.21389069 0.025438089 2.1102178 4285235860
-0.2241538 0.08269228 2.1091554 4282472289
-0.22103722 0.10703778 2.1083558 4282076501
-0.21656939 0.13286507 2.1074324 4278847753
-0.22011659 0.046335198 2.1045027 4281285184
-0.22969234 0.074270323 2.1030171 4279969839
-0.22721547 0.054256301 2.1017513 4282540153
-0.22429504 0.12656188 2.1010122 4282995024
-0.23301554 0.087358207 2.100234 4283129704
-0.23819746 0.068316244 2.0945234 4280166961
-0.2424148 0.058560014 2.0892961 4283590522
-0.24497646 0.076619379 2.0886402 4279903790
-0.24886733 0.064307064 2.0828664 4285565340
-0.2531997 0.088235028 2.0786946 4279113246
-0.25802904 0.077247225 2.075666 4285763233
-0.26255468 0.097117804 2.0714066 4283195503
-0.26954156 0.088277176 2.0636823 4280100654
-0.27091113 0.078402102 2.0603173 4281155666
-0.25854331 0.0023070406 2.0580633 4285300622
-0.27241418 0.0686533 2.0534074 4284052366
-0.27712697 0.094253868 2.0514684 4283194728
-0.27698374 0.079996966 2.0510941 4282472300
-0.25613284 0.020106366 2.0504146 4280101429
-0.25550371 -0.0055200104 2.0488102 4282797910
-0.25983498 0.0056001358 2.0482316 4283589747
-0.25838727 0.052988436 2.0472324 4281747800
-0.27173558 0.06053808 2.0450714 4284119190
-0.28089032 0.068893753 2.0406728 4285894050
-0.27947941 0.1305555 2.0366797 4281679940
-0.17327085 -0.27379048 2.0362208 4281351753
-0.28846553 0.087063871 2.0329833 4283522924
-0.24387138 -0.015858434 2.0325489 4283655017
-0.28786939 0.067437135 2.0281861 4281416774
-0.29337266 0.08210855 2.0252752 4280955710
-0.18398704 -0.13964133 2.022084 4283061078
-0.29881302 0.095883951 2.01911 4279836711
-0.29949778 0.085062169 2.0166824 4281745482
-0.25992551 -0.21090387 2.0172229 4279837479
-0.19233678 -0.094344735 2.0176055 4281152048
-0.29986814 0.072653286 2.0154717 4280693304
-0.19521363 -0.14727983 2.0092344 4283786083
-0.2606965 -0.19211252 2.0061152 4279574566
-0.19125484 -0.13225557 2.0060222 4282142034
-0.30437475 0.073889226 2.0032847 4282734955
-0.18497887 -0.28824162 2.0045636 4289313477
-0.22286196 0.0095313843 2.0034416 4283522146
-0.31098503 0.1060733 1.9992763 4279968294
-0.30908671 0.086525828 1.995231 4279968293
-0.31389979 0.13437517 1.9929453 4278256130
-0.21544081 0.011008861 1.9912488 4284772211
-0.18313447 -0.2941758 1.9888172 4283589741
-0.2178746 -0.0034677391 1.9881334 4279641131
-0.26985615 0.040023305 1.9852848 4282537311
-0.17647788 -0.16644426 1.9848094 4283062363
-0.31519353 0.14076614 1.9829004 4287073949
-0.17899664 -0.30041519 1.9818857 4290300115
-0.15749148 -0.31391242 1.9807532 4282009685
-0.20025569 -0.26025745 1.9738761 4287274920
-0.27992633 0.03558616 1.9738488 4280233011
-0.27227655 0.015660023 1.9724796 4284907158
-0.31249344 0.1327047 1.9711443 4279770917
-0.16422679 -0.3069877 1.9684917 4283525239
-0.20488845 -0.045668986 1.9674579 4287866807
-0.31393814 0.10959501 1.9678555 4286883001
-0.19512697 -0.25889999 1.9654953 4285957772
-0.2873891 0.047514938 1.9647771 4281944404
-0.27698728 0.016216459 1.9594377 4286223275
-0.16859318 -0.3033199 1.9545058 4281483339
-0.19100852 -0.26997155 1.9523031 4281943368
-0.20937866 -0.0160909 1.9507666 4290168788
-0.20559168 -0.027515322 1.9477363 4283261034
-0.17108585 -0.29806072 1.943099 4280232493
-0.28245792 0.03939588 1.9432117 4284974746
-0.16850838 -0.2879433 1.9364749 4282141004
-0.16435349 -0.24550909 1.9314736 4280364339
-0.1598841 -0.25898063 1.9302702 4281812555
-0.18664737 -0.0395386 1.9231259 4287668908
-0.1409093 -0.26809683 1.9094141 4282206284
-0.11618292 -0.23981707 1.8907198 4286355107
-0.14488454 -0.076498397 1.8906537 4285366153
-0.15110317 0.094550744 2.1511555 4280035891
-0.16961241 0.054167163 2.146116 4286357428
-0.17980458 0.068640649 2.1452408 4284251282
-0.17831819 0.10963805 2.1449909 4282668638
-0.18825126 0.080176182 2.1406167 4283127904
-0.19013476 0.062805183 2.1396563 4280824894
-0.18953882 0.12533423 2.1343656 4283391329
-0.19723602 0.09462896 2.1314437 4282667606
-0.20651372 0.081543967 2.1273208 4279706155
-0.20522213 0.112981 2.1252372 4283063908
-0.21307366 0.070824109 2.1237478 4284183166
-0.2012497 -0.0027052169 2.1197112 4282999157
-0.19838321 -0.015032073 2.1143539 4286025121
-0.21834883 0.02887716 2.1155045 4283327088
-0.16816019 0.10793474 2.1102026 4280956477
-0.22504729 0.10758801 2.1118364 4280297520
-0.22470328 0.029607667 2.1075861 4286223270
-0.22698894 0.046089914 2.1059527 4281219392
-0.22271697 0.020030277 2.1014252 4288854987
-0.23965544 0.086976759 2.10166 4283130477
-0.22690296 0.028838621 2.0955274 4282668130
-0.24450003 0.11153572 2.0930753 4282864726
-0.17985569 -0.012681815 2.0828614 4282670194
-0.18833625 -0.0067434963 2.0825756 4282868605
-0.22735944 0.033125795 2.0855262 4280430395
-0.21525842 0.011035374 2.0826652 4285104793
-0.2383281 0.14073268 2.0841246 4281348403
-0.17026651 -0.017321285 2.0783176 4289576651
-0.20656148 0.0053316648 2.0801578 4285632166
-0.071878403 -0.078245811 2.0682912 4285762201
-0.12924908 -0.042683683 2.0727332 4286090395
-0.14334655 -0.032926224 2.0725057 4286748065
-0.079552822 -0.071174875 2.066854 4282143072
-0.072081983 -0.096697196 2.0648022 4283063401
-0.1628143 -0.026795732 2.0723259 4285828252
-0.22355315 0.031062085 2.0770981 4283920001
-0.087713562 -0.064509749 2.0650127 4282998382
-0.26131865 0.12583287 2.0788755 4281549384
-0.18572679 -0.0088239638 2.071691 4287472562
-0.21172389 0.015315434 2.0732148 4285170841
-0.091071829 -0.074137032 2.0620067 4280956994
-0.092059024 -0.08717899 2.0607898 4281286727
-0.26619768 0.10686313 2.0759225 4282932593
-0.097960509 -0.065738387 2.0610337 4282011227
-0.067319028 -0.13651954 2.0576129 4284246893
-0.2689155 0.096678771 2.0728958 4283327345
-0.19736059 -0.017108385 2.0663946 4285631645
-0.10777529 -0.070309997 2.0571468 4284775306
-0.09193226 -0.16688955 2.0554013 4284246901
-0.22674067 0.031012377 2.0675101 4287407285
-0.1919844 -0.028962722 2.0600517 4283855750
-0.23652653 0.029722976 2.0610309 4283392878
-0.12606591 -0.23001024 2.0503931 4281548354
-0.12451991 -0.074409634 2.0484819 4281679941
-0.26503766 0.0021932914 2.0596275 4285498002
-0.25076342 0.015808901 2.0566015 4282603107
-0.27211004 0.12952265 2.0582123 4282074183
-0.29866922 0.11376086 2.0592222 4280231725
-0.22687043 -0.019733882 2.051645 4283059017
-0.14719313 -0.13807325 2.0433087 4279903534
-0.13658525 -0.31116697 2.0366797 4279639331
-0.26479545 0.052711889 2.0488136 4282010715
-0.18174227 -0.2582649 2.0402706 4281812047
-0.25651786 0.025838893 2.0462649 4282207058
-0.25681487 0.013170143 2.0459998 4278851103
-0.17620897 -0.28060409 2.0377367 4282273113
-0.1610174 -0.12709071 2.034363 4282864729
-0.25062191 0.021009352 2.0401926 4282470747
-0.28593856 0.12995355 2.0383306 4281614147
-0.25027856 -0.015875092 2.0341685 4283720810
-0.21402563 -0.064018041 2.0290904 4285362539
-0.20602933 -0.080313057 2.0275376 4281679679
-0.18234344 -0.16484584 2.0229225 4281680459
-0.24007973 0.0012468474 2.0284553 4282668896
-0.14600669 -0.31422678 2.0181532 4285695897
-0.18807834 -0.2821545 2.0223689 4287076773
-0.19927488 -0.094039142 2.0193663 4280954669
-0.2877278 0.060534235 2.0275888 4289315029
-0.1545303 -0.30907372 2.010514 4282208354
-0.19445617 -0.10920822 2.0140283 4281152050
-0.17760023 -0.29776371 2.0088995 4281682269
-0.19368857 -0.12205993 2.0103002 4284443242
-0.22639354 0.016509771 2.0129542 4283456869
-0.25187299 0.047049325 2.0127881 4284377711
-0.092687175 -0.16388628 1.9915612 4285561204
-0.19260661 -0.1296277 2.0036535 4279969837
-0.23399638 -0.011725127 2.0071886 4281219905
-0.19371548 -0.14086518 2.0004268 4284706928
-0.22306556 -0.025772121 2.0019181 4280824890
-0.18527083 -0.30223441 1.9969126 4290497751
-0.18571593 -0.11078904 1.9956183 4281942595
-0.3086127 0.067275554 2.010891 4285500581
-0.18474627 -0.12587132 1.9928997 4284245345
-0.19110699 -0.14175458 1.9907825 4281612859
-0.22888716 0.022477478 1.9938787 4281153089
-0.25273651 0.056046236 1.9964296 4283457907
-0.18252142 -0.16596907 1.9864342 4282930520
-0.18593173 -0.13285232 1.984759 4281679422
-0.22552723 0.012143118 1.9882284 4282140495
-0.22789632 -0.014577211 1.9881668 4281285956
-0.23690078 0.019784981 1.9885575 4285566115
-0.31686616 0.09834563 1.9986345 4286420390
-0.30655935 0.062190168 1.9950022 4289313740
-0.18796109 -0.1412302 1.9785874 4284838771
-0.23668808 0.0069565028 1.9810724 4283920775
-0.21158487 -0.031937063 1.9746417 4289314249
-0.17563573 -0.16775094 1.9679074 4283917155
-0.18167084 -0.1411593 1.968163 4284771174
-0.19258267 -0.18799099 1.9690318 4282733912
-0.32077914 0.12212338 1.986442 4285103498
-0.32070699 0.14025168 1.9845046 4287337377
-0.1848242 -0.18259671 1.9612607 4279705893
-0.31578824 0.070993505 1.9779862 4285696413
-0.17806813 -0.13818532 1.9516549 4279244570
-0.16991195 -0.17396149 1.9500217 4284442984
-0.31670478 0.076351166 1.9695551 4280693048
-0.28280264 0.016100092 1.9611692 4286289068
-0.17997971 -0.081341021 1.9446394 4282205767
-0.21008559 -0.034373935 1.9489405 4286946732
-0.1770556 -0.091625594 1.9427489 4282600011
-0.16556518 -0.18025783 1.9407178 4280496179
-0.31717077 0.11300343 1.9619867 4285039248
-0.28979355 0.027424462 1.957342 4287473854
-0.316347 0.09137819 1.9603877 4281352528
-0.30940491 0.071845666 1.9576341 4285764526
-0.21260606 -0.017328482 1.9425094 4290037459
-0.12726951 -0.32374814 1.9290231 4289774028
-0.16731799 -0.1397178 1.9340218 4285627256
-0.29308721 0.041237075 1.9532067 4281483594
-0.30575752 0.061735593 1.9539765 4284645270
-0.31144258 0.083789229 1.954622 4280561462
-0.20415466 -0.039137907 1.9369344 4285761427
-0.1611824 -0.14923413 1.926891 4281745990
