# .PCD v0.7 - Point Cloud Data file format
VERSION 0.7
FIELDS x y z rgb
SIZE 4 4 4 4
TYPE F F F U
COUNT 1 1 1 1
WIDTH 1082
HEIGHT 1
VIEWPOINT 0 0 0 1 0 0 0
POINTS 1082
DATA ascii
-1.1482798 0.1577035 4.2460122 4282070319
0.019075667 0.092722967 3.7018738 4287800752
-0.77748615 0.011611822 4.0585785 4282004783
-0.82403558 -0.085565262 4.0673652 4289902783
-0.76832527 0.00042444307 4.0502038 4282004527
-0.88715971 0.060161293 4.1093073 4284506460
-0.6979726 -0.061559375 4.0092015 4282399802
-0.77396148 0.0088575371 4.0451951 4282400573
-0.70968843 -0.053664688 4.0074348 4284966252
-0.85624331 -0.083058529 4.0723138 4284439636
-0.72669405 -0.060693409 4.0116091 4282795077
-0.77110195 -0.00061597268 4.0381103 4287728767
-0.77434939 -0.07237871 4.0300164 4283321681
-1.0325 0.051408693 4.1633191 4289243038
0.2254186 0.39731777 3.6090853 4290168532
-0.72943342 -0.050392553 4.0040784 4282531387
-0.78984869 -0.069377266 4.0290122 4283321423
-0.90809935 -0.078537837 4.0829411 4288652714
-0.7758072 -0.057847209 4.0179787 4286480778
-0.79581845 0.012705938 4.0335903 4287597952
-0.9110083 -0.066501051 4.0796137 4287664797
-0.77472049 -0.049275342 4.0142479 4282268217
0.087637909 0.079845376 3.6095867 4286156701
0.13553013 0.10754769 3.5893943 4284246638
-0.77098274 -0.040216409 4.004828 4285493880
-0.82628131 -0.00042098522 4.0307417 4281280805
-0.77217788 -0.033722684 4.0001106 4285229936
-0.85235488 0.044406977 4.045774 4286610031
-0.89074689 0.011574432 4.0513468 4281281062
-0.80130273 -0.021226998 4.0047684 4283650640
-0.82375413 -0.028946472 4.0098329 4282926407
-0.91469389 0.023690874 4.0563374 4287202681
0.098974966 0.10461137 3.5718899 4284377711
-0.89999211 -0.039517168 4.039547 4286612880
-0.89993805 0.031464111 4.0464087 4281477926
-0.90100235 0.042892579 4.0439529 4282662973
-0.85068893 -0.014864 4.0089936 4282333491
0.13366057 0.11743605 3.5391412 4285629580
-0.90137208 -0.012126789 4.0256133 4282070834
-0.87893891 -0.0041592708 4.0121508 4282860093
0.046797913 0.11919655 3.5639806 4291023322
0.14689426 0.13841012 3.5078597 4284771696
-0.94580102 -0.0034132453 4.0342617 4283321163
-0.92875999 0.0059197485 4.024374 4282202420
-1.0287116 -0.0081371572 4.0677094 4287798442
-0.99471849 -0.00056626182 4.0496368 4287731100
-0.96036702 0.011580446 4.029963 4286611334
-0.96920258 0.017852247 4.0288205 4286677898
-1.0502515 0.0056749731 4.0664678 4282991944
-1.1170124 -0.0027712272 4.0976839 4283519832
-1.0116436 0.032526709 4.0410843 4285230701
-1.0384184 0.022021038 4.0530729 4286217090
-1.1382133 0.012004956 4.0960741 4287797411
-1.0905986 0.033508897 4.0697832 4286547856
-1.1651336 0.023762513 4.1009984 4283190094
-1.1186218 0.045766741 4.0765262 4285295988
-1.1768073 0.036002569 4.0989966 4282926660
-1.1839583 0.054160446 4.0965309 4282005046
-1.2551194 0.0298911 4.1243601 4291876054
-1.19893 0.083065517 4.0992227 4284373855
-1.2300079 0.046494354 4.1059914 4287467405
-1.2492357 0.048220005 4.1046624 4286347887
-1.2713441 0.057209801 4.1150651 4281017632
-1.2815022 0.057758432 4.1074414 4290559679
-1.3789387 0.063679762 4.1544175 4284900442
-1.314 0.064873978 4.1063609 4286743160
-1.3360145 0.070050441 4.1100421 4289573297
-1.5030913 0.083201088 4.1971259 4281674275
-1.3756815 0.081359953 4.1080194 4284045139
-1.624772 0.09172716 4.2462382 4281477410
-1.7048727 0.10211386 4.284204 4285097307
-1.4138169 0.10621165 4.0796843 4289507510
-1.4275478 0.10825954 4.0788665 4283255106
-1.4410902 0.11453773 4.0723634 4282596663
-1.463728 0.12261985 4.0714984 4286809482
-1.6418586 0.13150805 4.173439 4281872170
-2.2490373 -0.038100142 4.8645129 4284442991
-2.0646801 -0.071066141 4.790102 4290225806
-2.208607 -0.044746492 4.8435655 4282926144
-1.9482733 -0.085382193 4.7377934 4285360223
-2.1957071 -0.041422289 4.835393 4282860092
-2.0114248 -0.071753412 4.7618818 4285625196
-1.9026949 -0.086773016 4.7162061 4282662715
-1.640959 -0.12027747 4.6084456 4287203203
-1.6567091 -0.12786976 4.6127992 4285361779
-1.6340159 -0.11313347 4.6015224 4284833876
-1.5223939 -0.13787754 4.552351 4282597178
-1.6816176 -0.096629515 4.6178203 4286544239
-1.4974995 -0.14614575 4.5409513 4287071358
-1.4402808 -0.14640154 4.5160894 4283846728
-1.6639616 -0.11161467 4.6047878 4281938990
-1.3901228 -0.12401242 4.4834352 4283518794
-1.3235259 -0.11837111 4.4529867 4288254853
-1.3582454 -0.17149888 4.4606609 4286809997
-1.7788609 -0.13420436 4.6214671 4291349198
-0.97821891 -0.19912376 4.2882962 4291546577
-0.86814469 -0.19944726 4.2391825 4288191647
-0.8357451 -0.18061109 4.2239628 4284373845
-0.096530989 -0.14368965 3.9256387 4282465596
-0.78937721 -0.19657242 4.201653 4284834652
0.20626554 -0.16488406 3.7904992 4282334007
-0.79816633 -0.20144428 4.1980605 4288652200
-0.71719337 -0.1917759 4.1634836 4285756272
0.15982775 -0.17178862 3.8018584 4284901487
-0.63685757 -0.1753471 4.1285143 4288256411
-0.66493869 -0.1917353 4.1335382 4290494145
-0.76273507 -0.19784965 4.1734047 4285228894
0.3658255 -0.18087597 3.7071278 4288586667
-0.62446046 -0.1841218 4.1153479 4283057728
-0.68961006 -0.19439042 4.1373482 4290625732
0.53373617 -0.18076059 3.6284819 4282729021
-0.61877269 -0.18236628 4.1029925 4290823369
0.078598671 -0.096019454 3.8154452 4286807667
-0.54139286 -0.19474626 4.064343 4289178287
0.67500728 -0.18871698 3.5533412 4288257444
-0.6701749 -0.19234867 4.1161985 4286545791
-0.31690913 -0.18458417 3.9622705 4284768601
-0.20263009 -0.17027727 3.9091094 4289639609
0.43720081 -0.18383831 3.6335404 4287204756
0.59871686 -0.18336067 3.5598829 4286546823
-0.53613985 -0.18601403 4.0369058 4285623911
-0.34004554 -0.18101433 3.9511938 4285163620
0.66919905 -0.1857972 3.5169163 4283584850
-0.55534756 -0.17092489 4.0421615 4287138186
-0.30295432 -0.17648476 3.9290748 4289441974
0.7247225 -0.18027084 3.4789236 4282399802
-0.19896211 -0.17622764 3.8760056 4286414463
-0.55747819 -0.16961673 4.0295377 4289507768
-0.46416542 -0.15419321 3.9893847 4288849321
-0.67855871 -0.15839143 4.0764394 4285558118
-0.54319996 -0.15230435 4.0165844 4288455078
0.53179014 -0.16873305 3.5459344 4285295469
-0.62567413 -0.14093083 4.0442705 4285887862
-0.13743569 -0.036368422 3.8344359 4285757555
-0.74283487 -0.13682258 4.0860806 4286084466
-0.1069447 -0.043768998 3.8070636 4287465594
0.042106245 -0.14167248 3.7274034 4285427569
-0.83282906 -0.11811812 4.1124458 4291546833
-0.18216729 -0.036288969 3.8298261 4287466366
-0.31244075 -0.12366587 3.8652828 4285757047
-0.51170146 -0.11097194 3.9417388 4285821290
-0.43091089 -0.10116228 3.9026763 4284572263
-0.23641916 -0.096925378 3.8096957 4282005040
-0.85839331 -0.10120836 4.092032 4285163880
-0.61623937 -0.01919701 3.9859276 4285625194
-0.31785384 -0.085900217 3.8407338 4283123526
31.159863 0.25473765 -10.608783 4287800752
-0.7609846 0.01112749 4.0509276 4282004783
-0.8694244 -0.082171209 4.0887451 4289902783
-0.32452664 -0.077299647 3.8349664 4282399802
-1.0429789 -0.076593086 4.1633506 4286084465
-0.71842134 0.0013971743 4.0191641 4288386180
33599.188 77.810196 -15585.961 4287801527
-0.49855295 -0.070136309 3.9043901 4282795077
-0.9284566 0.026803816 4.1127787 4287006330
-0.44737473 -0.058677863 3.8787785 4284373856
-1.1447747 -0.06336695 4.201582 4285886567
-0.74057704 -0.058718968 4.0013223 4286480778
-0.72809309 -0.050524432 3.9921148 4282268217
25231.156 45.473061 -11980.656 4286156701
43716.227 382.93677 -20742.105 4284246638
-0.75009477 -0.040678397 3.9948602 4285493880
-0.79913968 -0.029048856 4.0098801 4285098610
-1.2519691 0.019021502 4.2257915 4281281062
-1.3360122 0.030685361 4.2607546 4287202681
23646.133 189.92844 -11422.462 4284377711
-1.2990738 0.036926679 4.240438 4281477926
-1.331574 0.050232988 4.2533998 4286413165
-1.0936732 -0.0094943363 4.130887 4282399544
35343.707 394.53732 -17223.867 4285629580
-1.2845925 -0.00075468363 4.2147617 4282070834
-1.219757 0.004930445 4.1806426 4282860093
-1.4046181 0.016952848 4.2616343 4282202420
-2.0838876 0.0092068864 4.5955505 4291019974
-1.6326591 0.020013753 4.3661108 4283584852
-1.7268746 0.021182641 4.4101772 4283189579
-1.7404789 0.03481343 4.4096384 4286217090
-1.6856203 0.039909631 4.382134 4286086794
-1.9226323 0.04617136 4.4933405 4283254850
-2.0647557 0.048239417 4.5581183 4282926660
-2.113606 0.06017562 4.5757909 4287205788
-2.2034836 0.045750588 4.6202998 4291876054
-2.1790211 0.055938091 4.6041722 4287467405
-2.220217 0.057306916 4.6186748 4286347887
-2.2882686 0.062100954 4.64465 4288257179
-2.4622431 0.076482572 4.7113109 4284045139
-2.7941842 0.093728192 4.883132 4283715914
-2.5394425 0.088892221 4.7277727 4289507510
-2.5839703 0.092563584 4.7414303 4282596663
0.21679077 -0.2089794 3.9151614 4290357650
0.16838853 -0.2577087 3.9053965 4282662715
0.1461778 -0.27665186 3.9046335 4287203203
0.13000205 -0.28744793 3.8949168 4282597178
0.12193371 -0.2885558 3.89224 4283846728
0.12581207 -0.26379043 3.8891978 4281938990
0.11118771 -0.28131798 3.8841379 4285031776
0.10660993 -0.24405557 3.8778317 4283518794
0.02933934 -0.16358373 3.8520062 4289310388
0.018066756 -0.14995407 3.846298 4282729021
0.021123335 -0.19098763 3.834475 4287465082
0.0074458122 -0.15412535 3.8362007 4282992451
0.016225874 -0.20507099 3.8262482 4286216048
0.020926893 -0.2484379 3.8185527 4284637793
-0.0039980239 -0.15395315 3.822376 4284703594
-0.014782945 -0.14609016 3.8140063 4283584850
-0.0011424583 -0.21230042 3.8002591 4287138186
-0.0068105143 -0.20337358 3.7985032 4285229413
-0.022946045 -0.13851348 3.8059208 4282399802
-0.016935093 -0.16347711 3.798485 4289572787
0.0041078939 -0.25271356 3.7801969 4284900193
0.040326163 0.010365054 3.7854021 4285752917
-0.016609471 -0.051619455 3.7977808 4283256396
-0.034442995 -0.14180647 3.7893286 4287598739
-0.028640039 -0.039550491 3.7862291 4285757555
-0.044546559 -0.14363742 3.7727098 4285361001
-0.038887173 -0.045947008 3.7766452 4287465594
-0.037328355 -0.031191086 3.7772083 4282202162
-0.051463515 -0.1283707 3.7666314 4283584590
-0.045769017 -0.040438857 3.7684593 4287466366
-0.06509921 -0.089251533 3.7551744 4284769130
-0.068092242 -0.13669442 3.7370889 4285821290
-0.08092723 -0.097411148 3.7306354 4283123526
-0.14059544 0.0825601 3.7589862 4287801527
-0.093220271 -0.079101384 3.7182498 4284966252
-0.081070431 -0.12446237 3.7076039 4284439636
-0.082112506 0.0068093874 3.7174017 4288123008
-0.080966227 0.013411961 3.7161164 4287006330
-0.10473569 -0.087113507 3.6986487 4286480778
-0.16896282 0.080914572 3.7317929 4286156701
-0.11470093 -0.065037854 3.6902177 4285493880
-0.11938839 -0.056946114 3.6860533 4285229936
-0.11335518 -0.0052550025 3.6758449 4281281062
-0.11717302 0.0098320404 3.6693351 4287202681
-0.11849002 0.030627951 3.670851 4286873716
-0.13058922 -0.042587459 3.6686876 4285295989
-0.19224988 0.10740805 3.7118499 4284640635
-0.1214232 0.020154385 3.6679103 4281477926
-0.1767644 0.021347079 3.5818183 4282926660
-0.18585168 0.042723015 3.5711677 4286152330
-0.19378044 0.029425872 3.5608907 4286479217
-0.2029587 0.037496518 3.5507019 4286347887
-0.22099136 0.05411322 3.5317409 4290297020
-0.23428123 0.059776999 3.5170138 4291481039
0.23043816 -0.2125015 3.9135625 4284442991
0.20860527 -0.21022554 3.9004681 4282860092
0.14781338 -0.27739787 3.9039526 4287203203
0.02869262 -0.1535778 3.8645537 4282334007
0.015152991 -0.15878761 3.8546765 4288586667
0.0039995634 -0.1510348 3.8485513 4288652458
0.0099333944 -0.2008815 3.8333864 4285558631
-0.0032572527 -0.1891661 3.8204985 4288454562
-0.014871411 -0.15315871 3.8270726 4284703594
-0.02643491 -0.14530239 3.8190761 4283584850
-0.036038768 -0.1325748 3.8113685 4282597439
-0.027695816 -0.18785305 3.7883863 4288455078
-0.061478905 -0.13603903 3.7739847 4285427569
-0.057860103 -0.039871551 3.773917 4287466366
-0.078341149 -0.088392541 3.7612336 4284769130
-0.079976633 -0.12353872 3.7489228 4288651942
-0.094060175 -0.012681792 3.7278881 4288386180
-0.16153969 0.082543954 3.768707 4287801527
-0.092908226 -0.12363248 3.7131882 4284439636
-0.11602536 -0.074848108 3.7138526 4282531387
-0.12874711 -0.064129218 3.6969831 4285493880
-0.226805 0.1155122 3.7152231 4285629580
0.21620521 -0.22300333 3.9053977 4282926144
-0.0086992867 -0.14848201 3.8575916 4282729021
-0.036166959 -0.063699894 3.8270483 4286346345
-0.059153017 -0.049708478 3.8070371 4287137145
-0.12416949 0.014519543 3.7363789 4287006330
-0.14814354 -0.073540315 3.7290497 4282531387
-0.2522108 0.030785713 3.5916467 4286479217
-0.28375497 0.052841384 3.5648816 4287202423
0.23870197 -0.21116598 3.9066951 4290357650
-0.23506671 0.082801186 3.8028746 4287801527
-0.30102551 0.10696514 3.7645135 4284640635
-0.28278637 0.083023652 3.8250594 4287801527
0.26696914 -0.21264468 3.8958437 4290357650
0.23640868 -0.21184433 3.889667 4282860092
0.29277021 -0.21249895 3.8859074 4290357650
0.26002768 -0.21169831 3.8804674 4282860092
-2.2894762 -0.03474094 4.8785586 4290423443
-2.1145928 -0.056126323 4.8049002 4286875006
-2.0900259 -0.063266054 4.7943454 4283190088
-2.1770897 -0.043123256 4.8280635 4283452227
-1.4490776 -0.145052 4.5284882 4286874503
-1.4859397 -0.13147862 4.5428753 4284768599
-1.5409712 -0.10762241 4.5619931 4286413167
-1.231266 -0.16486788 4.4327579 4283978571
-1.4581608 -0.11278372 4.5249352 4287860867
-1.1829957 -0.17122932 4.4086242 4285096794
-0.99195015 -0.18979783 4.3246603 4288125597
-0.95698833 -0.19020958 4.3090334 4288652456
-1.2724825 -0.18413098 4.432476 4290954440
-0.95340258 -0.20170566 4.3022146 4289704886
-1.0654269 -0.14998291 4.3520837 4283518794
-0.89370078 -0.2093384 4.2718897 4286480772
-0.97872132 -0.2085728 4.305676 4287073170
-0.58935755 -0.21634884 4.1428871 4282662712
-0.65623581 -0.19328289 4.1723847 4285294173
-0.50536627 -0.2243727 4.1043653 4287465859
-0.57490385 -0.19624706 4.1354523 4282926143
-0.44591239 -0.21882086 4.0794778 4286215017
-0.52333879 -0.24084404 4.1073565 4290757834
-0.75973678 -0.22267601 4.2052193 4285230450
-0.90322357 -0.21668145 4.2641826 4289902267
-0.27795497 -0.26204988 3.9976416 4290626248
-0.049585886 -0.27411422 3.8989568 4288191648
0.079886474 -0.25762737 3.8428042 4284374101
0.13597186 -0.25872195 3.8177555 4287532943
0.15915015 -0.28006685 3.8058815 4284900444
2.6623392 -0.30830899 2.7682662 4282465593
2.0004325 -0.28940675 3.0394905 4289376181
-0.030088041 -0.28527728 3.8781097 4291546833
0.25131235 -0.28595954 3.7614608 4285361514
0.20227583 -0.29020831 3.7811973 4285887603
0.61775208 -0.27560645 3.6028993 4285557346
0.35682261 -0.29690444 3.7089398 4288981422
0.026655052 -0.28951168 3.8463671 4291349455
3.6426835 -0.37732083 2.3300664 4288586923
0.6522603 -0.28105414 3.5837004 4288850094
0.9939242 -0.28368253 3.4379234 4285887599
0.65191084 -0.30139276 3.5772645 4290560195
0.88687813 -0.24069747 3.4842217 4285819485
0.82077783 -0.29971609 3.5042942 4283057471
1.2058702 -0.30022103 3.3428187 4289902525
4.5613995 -0.41458601 1.9280608 4282268471
2.5972931 -0.22763894 2.7664125 4281741614
1.4604121 -0.30921012 3.2317717 4290691782
5.1531987 -0.45160457 1.6698662 4288652458
1.5186787 -0.31614608 3.205133 4287005307
0.78854305 -0.32009584 3.5097265 4290231231
4.4845324 -0.43742871 1.9479456 4288783531
5.4035501 -0.45748091 1.5585974 4286546567
5.2783785 -0.46437994 1.609935 4288125858
1.4316857 -0.32250082 3.2361295 4288454305
0.52449894 -0.30830324 3.6184914 4290954696
0.98709512 -0.31230572 3.4233766 4285624169
1.8306468 -0.32188743 3.067997 4290493629
1.6142894 -0.32852677 3.153945 4291217868
2.8693883 -0.35767612 2.6219392 4289441717
1.682804 -0.33769721 3.1224403 4285755240
2.4838004 -0.33929986 2.7842548 4283781716
5.4399648 -0.47612554 1.5221096 4282861122
2.0163138 -0.34016907 2.979151 4288322973
1.2185173 -0.33360431 3.3158636 4287664788
2.0336027 -0.34554693 2.9704442 4285492838
5.4487476 -0.46548381 1.5143697 4283716175
1.2854215 -0.34363523 3.282995 4289046701
1.9084873 -0.345846 3.0177608 4291349454
2.1154644 -0.35717496 2.9286356 4285952618
0.9607085 -0.32945657 3.4169886 4286348155
2.4919565 -0.36717948 2.7648571 4288980907
2.2832406 -0.35708636 2.8533378 4285952874
2.683037 -0.3525131 2.6843698 4289705146
5.4849143 -0.49331912 1.4814187 4289046703
1.1793172 -0.3362222 3.32161 4284636759
1.4425583 -0.34755892 3.2075748 4291020490
2.2600408 -0.33517283 2.8610017 4283387211
2.5251167 -0.35317934 2.7416098 4284702810
2.2263057 -0.35973439 2.8668721 4285031774
2.426259 -0.36056557 2.7807274 4285032031
2.1152289 -0.37054396 2.911859 4288257184
2.6565859 -0.36195278 2.6781101 4289310645
4.4379063 -0.45079368 1.9084195 4283123783
6.1382279 -0.51833379 1.1759787 4284638059
0.81090558 -0.30623615 3.4683497 4291151818
2.3819973 -0.36053166 2.7926512 4290099646
0.94978917 -0.31999081 3.4072056 4292007126
1.9038585 -0.3760474 2.9931116 4286413947
4.0123901 -0.42951119 2.0794752 4290691012
3.6183398 -0.41041869 2.2486708 4286151812
0.87526315 -0.31862214 3.4316847 4291743956
2.3054776 -0.38997784 2.8112919 4285098857
1.9996674 -0.38212278 2.9416289 4290494146
1.2390767 -0.34370533 3.270721 4291612626
4.6471643 -0.45702949 1.7982677 4287467672
1.8676963 -0.37732801 2.9964132 4290230976
0.88978833 -0.32614717 3.4207332 4289968317
8.1133852 -0.61314654 0.28417793 4283387211
2.1208475 -0.38811931 2.880779 4285492068
1.8625042 -0.37112039 2.9927981 4291875542
2.55146 -0.39194787 2.6920164 4285294949
4.721427 -0.23962571 1.7726625 4283255622
2.0945413 -0.37766206 2.8838482 4285229667
0.65019274 -0.31367585 3.5134642 4291349198
4.6064968 -0.23192099 1.8153262 4286478189
2.0055599 -0.38000906 2.9213436 4291415248
3.4799402 -0.4091191 2.2821727 4284637536
3.0547743 -0.41137981 2.464637 4286480512
0.65709358 -0.30734065 3.5097511 4287862942
2.3952606 -0.38141334 2.7510123 4284703066
7.2279015 -0.5877865 0.6421935 4289967545
2.4858744 -0.38405415 2.7081006 4284966240
10.14324 -0.70368993 -0.6400587 4282465338
10.804084 -0.72147328 -0.93031394 4282465851
2.8197203 -0.3969025 2.5568304 4284637278
2.2372589 -0.37993914 2.8089104 4285558117
10.084412 -0.69982708 -0.62609392 4285098865
9.1061306 -0.6626879 -0.19838399 4287402136
2.0022101 -0.37726304 2.9089777 4290033853
2.4610999 -0.31782714 2.7116492 4290625474
2.4047155 -0.33172569 2.7331994 4291151562
1.5059867 -0.34314516 3.1214192 4286678153
2.2729795 -0.34491819 2.7864585 4283979859
2.0260594 -0.36235186 2.8913918 4289770425
2.0257978 -0.34927621 2.8917217 4289770423
0.18076436 -0.26839468 3.7021463 4284702814
2.6444774 -0.3692053 2.6166494 4284440151
7.0345993 -0.58731246 0.6744166 4287533463
9.6133537 -0.69218385 -0.46413797 4288257182
5.0356035 -0.21682824 1.5811228 4283059017
5.5004182 -0.24464971 1.3733989 4286547583
-1.0645201 0.023380533 4.2714658 4284836709
10.213125 -0.71277183 -0.73913723 4287598483
2.5513191 -0.36582139 2.6470747 4288257440
2.6124098 -0.35716188 2.613687 4287994527
5.8504229 -0.24297826 1.1993839 4286676594
-1.1256016 0.029115051 4.2931199 4285752660
9.8043995 -0.69063836 -0.58642083 4287928737
2.5131471 -0.35221827 2.6464598 4285755762
5.2869639 -0.20957831 1.4390062 4282202678
5.6102943 -0.20681843 1.28716 4286020726
9.827198 -0.67534429 -0.63101315 4282597439
9.1939154 -0.66237128 -0.35462531 4287270547
2.1511834 -0.3360928 2.7873573 4286018930
5.8570514 -0.31218833 1.1396981 4282202420
6.7386813 -0.25890231 0.747711 4287662459
-1.1325476 0.033888131 4.2814956 4284965978
6.1412549 -0.20183325 1.01794 4282202162
8.0252886 -0.58572584 0.132587 4285690742
11.154245 -0.65694827 -1.2758886 4284834922
8.8924456 -0.61368793 -0.26744509 4287862683
3.013221 0.11522392 2.4308772 4289045916
3.2007861 0.12165715 2.3472183 4283450942
1.0687716 -0.28484255 3.2563663 4287139220
7.117641 -0.25550288 0.54576182 4287400573
9.0450916 -0.60680687 -0.36020663 4287731096
-1.5186609 0.12544607 4.4519162 4282465334
0.75055385 -0.22140643 3.3942854 4292270298
5.2383819 -0.10253023 1.3632691 4287137404
7.5444221 -0.52578825 0.24757133 4289112750
47894.035 656.02039 -21777.438 4282599498
6.1791291 -0.48588663 0.85766006 4285821290
6.8753262 -0.50122017 0.5373292 4289968316
2.7251253 0.061018128 2.4915204 4282529583
11.509309 -0.67169571 -1.6115562 4286874760
5.4308228 -0.4038946 1.1978523 4285032814
6.0936227 -0.46725774 0.88622618 4290099387
6.7822456 -0.48705772 0.5683248 4289770422
8.5027447 -0.54100734 -0.22553559 4283057989
10.336011 -0.59277904 -1.0719929 4281675563
3.2263265 -0.35616124 2.2077975 4284965465
5.4797969 -0.44658181 1.1601862 4289902267
45379.715 705.19043 -20772.361 4281084457
7.4745717 -0.5082044 0.23613185 4284045664
3.5289612 -0.369423 2.0608649 4284899673
8.1057949 -0.53964585 -0.07335823 4289177772
9.7178535 -0.5430429 -0.81788081 4283452492
3.2412944 -0.34335795 2.1837916 4285098083
8.8478117 -0.51100224 -0.41873005 4287862688
10.492684 -0.57312179 -1.1992137 4287796636
6.0155492 -0.1600811 0.90239966 4282136113
12.45082 -0.6285674 -2.1276515 4282334010
13.88658 -0.7002359 -2.8114939 4287467414
10.183954 -0.56259227 -1.0869774 4285822591
-7.1875205 0.064906143 7.0464039 4285498252
5.6747956 -0.14641117 1.0362616 4288386180
11.042047 -0.53214926 -1.5045326 4285295217
2.8915119 -0.291888 2.3166485 4286150257
5.9123158 -0.1320641 0.92583275 4282334780
9.9965715 -0.52493763 -1.0313039 4282860869
2.8704615 -0.28076679 2.3191717 4284702808
12.82283 -0.57896626 -2.3678391 4284505699
5.0357881 -0.08314921 1.3229566 4288188544
5.152822 -0.091636509 1.2667425 4287465852
11.455997 -0.56641263 -1.7322586 4289309616
1.3836588 0.027242877 3.0374875 4284965981
2.7677765 -0.26335025 2.3566875 4283912263
8.7070684 -0.45844749 -0.45134398 4283321681
3.104295 -0.28370735 2.1921403 4285491809
9.8469934 -0.4866029 -1.0014303 4288454308
-6.9975271 0.043489669 6.9734211 4284181102
-7.0742712 0.065701269 7.0119867 4285827479
-7.0206904 0.042987794 6.9843802 4284575346
2.5171764 -0.25548017 2.4570601 4288981937
10.498334 -0.50045067 -1.3335314 4288848809
2.2531233 -0.24464141 2.5808456 4288849835
6.9401641 -0.390542 0.34697202 4286743949
2.5794926 -0.23567711 2.4154396 4287862175
8.6014261 -0.43752986 -0.4614177 4282662973
8.3330612 -0.40680844 -0.3373301 4282268216
8.8640308 -0.44015348 -0.5965054 4282728765
8.8342323 -0.41226032 -0.58086759 4287598483
9.9037762 -0.43737203 -1.1115904 4286480261
1.5104213 -0.18891452 2.9111724 4289771454
9.1563292 -0.40841073 -0.77705073 4283584596
10.695776 -0.43630061 -1.5163527 4285690747
1.4692155 -0.18166608 2.9227636 4289574074
0.90014893 -0.15745175 3.1949575 4290166210
1.3472902 -0.17381771 2.9773731 4290100675
7.2721972 -0.36686453 0.1148029 4287335829
-6.7888417 0.044595506 6.9016151 4284772480
10.332277 -0.39753321 -1.3671 4284572008
7.706594 -0.36662814 -0.10958138 4282794821
9.4251432 -0.38738105 -0.93839329 4284901229
-2.3157644 0.17875768 4.7682748 4283914583
-2.2441394 0.18603019 4.733973 4284177239
4.0844169 -0.092665724 1.6484801 4281478699
-2.4341953 0.16421154 4.8209567 4283718493
3.676414 -0.074790359 1.8410605 4282135856
-6.5863247 0.0400212 6.8138871 4285498253
5.9015117 -0.13660385 0.75889385 4280820252
-6.7093749 0.045081519 6.8745661 4291417307
6.2112293 -0.30054402 0.58824229 4283585112
-6.5570717 0.038732294 6.8014398 4285167995
-6.5730977 0.040747568 6.81001 4289709006
3.6010354 -0.052787665 1.8652041 4287136888
-2.3589203 0.18213019 4.7833986 4287801785
-6.7887621 0.0452279 6.9182849 4285498767
-2.4858308 0.16564848 4.8420362 4284047457
-2.4279177 0.17628282 4.8145919 4284705643
3.7610011 -0.034385692 1.7804679 4281478183
8.2519903 -0.27090877 -0.4333688 4281610026
4.0414696 -0.021078615 1.6427099 4287399286
3.8644197 -0.22246939 1.706534 4282268475
-2.5490401 0.1583382 4.8708744 4288722115
4.0308604 -0.0071902797 1.6413555 4282728509
3.8858073 0.0044829817 1.711125 4286610286
7.8700361 -0.27389517 -0.27051735 4282662975
-2.5380063 0.16771941 4.8636136 4287339686
-6.3811598 0.028666642 6.7297873 4284771953
3.3948829 0.018504592 1.9397892 4282465849
6.2401609 -0.22901513 0.51346517 4282268218
-6.4266624 0.023038065 6.7539206 4283586393
-6.4237394 0.028238559 6.7542043 4289445579
-6.4663267 0.029669007 6.7763515 4286943390
5.7569165 -0.20725779 0.73940772 4282531646
-6.534977 0.024057491 6.8121467 4285364344
6.7658844 -0.20514396 0.23298493 4282334006
0.46339694 -0.090325817 3.3508189 4289374892
4.489491 -0.16576594 1.3433557 4282597181
-3.0291047 0.12070808 5.0935345 4285891212
3.9123757 -0.13328253 1.6141405 4283518546
4.8944092 -0.13699703 1.1216213 4286348420
5.3020821 -0.13889073 0.91758978 4282267957
-0.14389344 -0.05721087 3.6307421 4290954182
1.6651024 -0.091427222 2.7195764 4287732649
2.8950472 -0.012422214 2.1103845 4282924599
4.1282358 -0.10729818 1.4824061 4287071370
2.7540748 -0.098934673 2.1702304 4287862685
3.2805605 -0.05293297 1.9111505 4280819995
-0.32949927 -0.046471581 3.715868 4290691269
-0.69090259 -0.04573793 3.8965042 4291348939
-0.40556782 -0.045549195 3.7521479 4285425760
2.7063441 -0.090160988 2.1841965 4286874763
2.5714734 -0.08258573 2.2521293 4283123786
3.2288442 -0.069239236 1.9167686 4285690490
1.8373185 -0.06796436 2.6123309 4282860356
1.7203867 -0.062388513 2.6664467 4282597184
2.4760802 -0.014581466 2.2857184 4280556309
2.8770428 -0.044397533 2.0730629 4282926146
2.9467745 -0.024165628 2.0328987 4285428338
2.8267698 -0.029536733 2.0910506 4286020228
2.3635283 -0.030410524 2.3240783 4286743951
1.833708 -0.0021035348 2.5867205 4281543978
0.36641377 -0.015874838 3.3312101 4283519316
1.3754947 0.013219314 2.8180618 4281214753
1.2629192 0.084911421 2.8823378 4289177502
0.41620719 -0.024098342 3.3019819 4287797412
1.5159973 -0.00095639785 2.7386799 4282136883
1.3973943 -0.0025502145 2.7972095 4286745235
1.0677556 0.086413361 2.9754505 4282202937
1.0534396 0.00441828 2.9680407 4283255106
0.33568302 -0.013302906 3.3348439 4286152073
1.1189225 0.085721985 2.9421475 4283189828
0.86619973 0.0014763823 3.060909 4288193967
0.46146181 -0.0051987558 3.2681634 4287403421
0.46465605 0.0049858722 3.2642169 4282531647
1.0304291 0.024424272 2.9713702 4285361781
0.91815919 0.023686638 3.0262823 4282925886
0.056858342 0.0045963302 3.4666693 4284506730
0.64892852 0.095919013 3.1701939 4289243039
0.47386581 0.036843043 3.2493536 4281346600
0.54147601 0.025087554 3.2119448 4288060835
0.31902239 0.021046819 3.3252876 4286811029
0.52750558 0.099304557 3.2226491 4289177502
0.2408431 0.024576725 3.3620589 4284308322
0.1303017 0.022850979 3.4176779 4283387731
0.47506675 0.10113493 3.2459805 4289177502
0.4430072 0.039812237 3.2513394 4285889156
0.14956394 0.045205951 3.403976 4281873459
0.090415701 0.041093037 3.4272151 4286481551
-0.1149065 0.038882203 3.5299273 4285362808
-0.11719542 0.03526308 3.5218134 4287664785
-0.52693295 0.077111937 3.7295597 4283518536
-0.190989 0.038202945 3.5444505 4286413424
-0.38107893 0.051501047 3.6385679 4286809219
-0.83443564 0.082677282 3.8797038 4284439380
-0.35497496 0.055804707 3.6038461 4290033334
-1.1299652 0.085047141 4.0203452 4283716429
-1.5405369 0.072065905 4.2399716 4281543463
-0.54890043 0.061975859 3.6881015 4291612625
-1.2623795 0.07530015 4.078146 4284374100
-1.8300738 0.10700443 4.3311586 4283649863
-1.2027104 -0.15826933 4.4335189 4286610807
-1.1841406 -0.15770939 4.4212723 4284768599
-1.1890037 -0.15036274 4.4232793 4284833877
-1.0760151 -0.17921944 4.3697214 4283978571
-1.0662928 -0.18342209 4.3634896 4286018409
-1.176204 -0.13465762 4.4105606 4287860867
-1.0555643 -0.18317623 4.3566532 4285096794
-1.0133109 -0.18581539 4.3353601 4288059289
-0.99160367 -0.19018896 4.3244467 4288125597
-0.98055124 -0.18999627 4.3188663 4285229154
-0.97923893 -0.19958429 4.3127861 4289704886
-1.0250291 -0.15333548 4.3354712 4283518794
-0.87078196 -0.1917067 4.2595339 4282662712
-0.89303565 -0.17378959 4.2704072 4285294173
-0.841878 -0.19475259 4.2442369 4287465859
-0.86749077 -0.17242748 4.2568717 4282926143
-0.93085057 -0.20661291 4.2765794 4285230450
-0.79311645 -0.21408907 4.2135439 4290626248
-0.71465015 -0.19112551 4.1768026 4284374101
-0.70328325 -0.18922345 4.1708632 4287532943
-0.70799273 -0.20407389 4.1711817 4284900444
-0.31785724 -0.13456027 4.0159907 4282465593
-0.68214655 -0.19803844 4.1568875 4287138185
-0.69860786 -0.20983776 4.1621599 4285887603
-0.74473083 -0.2164064 4.1791592 4287007117
-0.624538 -0.17904986 4.1289721 4285557346
-0.67012954 -0.20696014 4.1449103 4288981422
-0.24933596 -0.14429922 3.9739552 4288586923
-0.61522996 -0.18174931 4.1217389 4288850094
-0.61736614 -0.1962283 4.1179161 4290560195
-0.65907466 -0.20761636 4.1336808 4285426273
-0.64359355 -0.20608811 4.12711 4289639094
-0.59361196 -0.1872168 4.1070795 4283057471
-0.68149418 -0.21059716 4.1403804 4291612112
-0.58349019 -0.1856131 4.1009798 4290099386
-0.16070899 -0.14289519 3.9274426 4288652458
-0.14752129 -0.14012286 3.9198871 4286546567
-0.56889313 -0.18870182 4.089746 4285624169
-0.45188922 -0.16819188 4.0416346 4285821545
-0.16953219 -0.14653949 3.9231298 4288652458
-0.15939368 -0.14159563 3.9150126 4283716175
-0.53372568 -0.19631118 4.0665526 4289046701
-0.13703522 -0.15289421 3.9010878 4288586410
-0.59115672 -0.19990569 4.0873089 4286348155
-0.5161466 -0.19222139 4.0541058 4291020490
-0.55742729 -0.19580239 4.0687709 4291546320
-0.57993686 -0.19745618 4.0768485 4287073424
-0.44114056 -0.18086265 4.0188217 4288257184
-0.14628759 -0.14713478 3.8933718 4284638059
-0.52519304 -0.192626 4.0498376 4287138961
-0.41042987 -0.16671123 4.0034795 4290099646
-0.39955148 -0.16333792 3.9984636 4288585891
-0.49829295 -0.19151534 4.035912 4291020232
-0.43906313 -0.18390188 4.0078545 4285098857
-0.61738169 -0.19857164 4.0825429 4285691511
-0.4672935 -0.1904332 4.0184503 4290494146
-0.085252956 -0.14377531 3.8551164 4283387211
-0.41524971 -0.17681225 3.9910192 4285294949
-0.40276635 -0.1751263 3.9854052 4290033853
-0.24814834 -0.059206791 3.9307005 4283255622
-0.3630105 -0.15989588 3.9683297 4286217344
-0.46650687 -0.18378551 4.0087819 4285229667
-0.33935207 -0.15835123 3.9561927 4284637536
-0.041065399 -0.13922803 3.824964 4282465338
-0.052417394 -0.13850364 3.8267035 4285098865
-0.072392136 -0.14226232 3.8349099 4287402136
-0.38145718 -0.17048001 3.9625797 4285362030
-0.4388023 -0.13871121 3.9905331 4290625474
-0.48667356 -0.17635319 4.0047574 4289770425
-0.77660382 -0.18678787 4.1280932 4284702814
-0.4660652 -0.1663581 3.9942896 4285559154
-0.44516 -0.16306475 3.9848995 4284966240
-0.23770155 -0.050566901 3.9026058 4286547583
-0.076503098 -0.13863909 3.8221362 4287598483
-0.48447186 -0.16577499 3.9948361 4285361257
-0.11044762 -0.1322453 3.8199959 4282597439
-0.13303669 -0.13711531 3.8280556 4287270547
-0.22557689 -0.041956071 3.8783138 4285689188
-0.25680923 -0.070608951 3.8826733 4282202420
-0.24847083 -0.026929881 3.881041 4282202162
-0.17756541 -0.13127699 3.8366206 4285690742
-0.2306487 -0.035735514 3.8652034 4282991679
-0.16694793 -0.12182182 3.8225837 4287731096
-0.64358389 -0.1318446 4.0309563 4292270298
-0.11017697 -0.090925254 3.7898517 4285822332
-0.40737754 0.0056898892 3.9297986 4287137404
-0.28559992 -0.11820963 3.8473604 4289968316
-0.32006243 -0.11906079 3.8588924 4290099387
-0.30216673 -0.11432497 3.8509901 4289770422
-0.20074092 -0.098715916 3.8056426 4281675563
-0.48360899 -0.13073918 3.9313059 4284965465
-0.3708691 -0.12074819 3.8785589 4289902267
-0.2849572 -0.11040791 3.8394303 4284045664
-0.2432818 -0.093463935 3.8151782 4287862688
-0.4699187 0.014145262 3.9288323 4285428075
-0.36313686 -0.010567291 3.8716021 4282136113
-0.23479234 -0.094044045 3.8027012 4286217091
-0.17163895 -0.088014603 3.7722514 4287467414
-0.37314862 -0.0079620546 3.8672791 4288386180
-0.22769259 -0.07498502 3.7923379 4285295217
-0.25823915 -0.082712822 3.8020148 4282860869
-0.21830556 -0.069789648 3.7821991 4284505699
-0.4194614 0.011702219 3.8841279 4288188544
-0.28239197 -0.073397346 3.8028078 4288454308
-0.35833955 -0.077433161 3.8290577 4286743949
-0.32330108 -0.071756735 3.8119497 4281675563
-0.33716038 -0.065938398 3.8132303 4282268216
-0.31480053 -0.058854342 3.7967753 4286480261
-0.34170425 -0.057489108 3.8030946 4283584596
-0.31723407 -0.047442235 3.7883661 4285493367
-0.35634625 -0.036744002 3.7998092 4283782231
-0.54972595 0.0032103448 3.8949034 4281478699
-0.56818217 0.0076317857 3.901566 4282135856
-0.50313389 6.136953e-05 3.8693206 4280820252
-0.59045464 0.017089047 3.9069393 4287136888
-0.57099122 0.02574048 3.8945024 4281478183
-0.41790399 -0.02531362 3.8135934 4281610026
-0.5650984 0.038452499 3.8885128 4282728509
-0.58104426 0.042890798 3.8958137 4286610286
-0.56781882 -0.0038236463 3.8532591 4282267957
-0.62518823 -0.00059389969 3.8729644 4287071370
-0.70755184 -0.0092814304 3.9128644 4287862685
-0.80811328 -0.0012802762 3.9503043 4282597184
-0.96886027 -0.0050438624 4.0241284 4283585106
-0.73576689 0.024364855 3.9071364 4286020228
-0.80409324 0.014664391 3.9396474 4282202423
-0.90570217 0.031286433 3.9775577 4283255106
-0.98311764 0.041171007 4.0044346 4288060835
-1.0178143 0.029621253 4.0206923 4287468702
-1.0554907 0.034088671 4.0360217 4284112228
-1.0377941 0.052796446 4.0245967 4281873459
-1.0771908 0.041107189 4.0398283 4284110157
-1.1372532 0.027272046 4.0659552 4291941847
-1.0972205 0.049609412 4.0425653 4281346596
-1.097893 0.040373731 4.0393329 4286610802
-1.1280216 0.046683893 4.0438647 4286413424
-1.1748325 0.054644465 4.0511603 4288191128
-1.1834002 0.057551078 4.0514827 4287268215
-1.2263739 0.067556359 4.059413 4289441971
-1.2473698 0.069767989 4.0642428 4290231227
-2.2573314 -0.036750469 4.8658905 4290423443
-2.19049 -0.042002045 4.8334355 4283452227
-1.3392693 -0.15764406 4.4721093 4285096794
-1.3235223 -0.1584428 4.464921 4285162587
-1.2548062 -0.1642146 4.4339771 4288059289
-1.1892865 -0.16977105 4.4041023 4288652456
-1.2970371 -0.13184178 4.4470634 4283518794
-0.8633092 -0.20239541 4.2524323 4285361254
-0.97129148 -0.16410595 4.2999125 4282926143
-0.78335428 -0.21519777 4.2093873 4290626248
-0.65058535 -0.21980031 4.1512423 4288191648
-0.59657454 -0.20125908 4.1271014 4284374101
-0.57345325 -0.20025039 4.1161675 4287532943
-0.5084067 -0.21305183 4.0834455 4287138185
-0.48596519 -0.22329737 4.0666714 4288981422
1.0431836 -0.22253416 3.4278653 4288586923
-0.3406193 -0.21935079 3.9999859 4290560195
-0.42227349 -0.22540058 4.0326657 4289639094
1.4688129 -0.23821929 3.235033 4288652458
1.5538433 -0.23783712 3.1960921 4286546567
-0.0048451223 -0.21545637 3.8504281 4288454305
0.19163947 -0.20829156 3.7682152 4290493629
0.1801528 -0.21303511 3.7712905 4285821545
0.09826234 -0.21755569 3.8034019 4291217868
0.080278493 -0.21924713 3.8095627 4285755240
1.4768331 -0.2428128 3.2168293 4282861122
0.2746343 -0.21667728 3.7184217 4285952874
0.29141796 -0.22222869 3.7037344 4285031774
0.20285887 -0.22865091 3.7399607 4288257184
0.29495385 -0.20912868 3.6995704 4285754982
1.4635192 -0.24243343 3.1972668 4284638059
-0.35756809 -0.21645293 3.9700527 4291743956
0.15826871 -0.22987477 3.7453711 4289113267
1.7489468 -0.24841143 3.0587595 4283585111
1.7776232 -0.25057104 3.0437202 4283387211
0.0046697455 -0.2267068 3.8066177 4291875542
1.7216942 -0.25123322 3.0658832 4288191908
0.84611177 -0.096939556 3.4515021 4286478189
0.4886806 -0.21881127 3.5918112 4286678409
-0.048581582 -0.22295688 3.8227785 4291941334
0.040309906 -0.22299372 3.7817881 4288586663
1.9630314 -0.25030461 2.9463401 4282465338
2.0148337 -0.24565102 2.9234087 4282465851
0.070310138 -0.21866935 3.7651665 4285558117
-0.85689747 -0.17900991 4.1641092 4284702814
0.088210106 -0.19954729 3.7484486 4284966240
0.71772259 -0.076666236 3.4829445 4283059017
0.86166918 -0.087710276 3.4180422 4286547583
0.017026247 -0.189971 3.7688198 4285887342
0.85481697 -0.080911234 3.4114876 4286676594
-1.6095554 0.036633234 4.5065703 4285752660
0.73860914 -0.063415803 3.4539382 4286020726
1.4569598 -0.2175605 3.1180446 4282597439
0.86241335 -0.075925522 3.3930936 4285689188
1.3856483 -0.21450888 3.1456678 4286677895
-0.18698876 -0.1755259 3.8426127 4286018930
1.0727953 -0.123076 3.2861695 4282202420
0.83891958 -0.071241781 3.3931887 4286611058
1.0900325 -0.20108922 3.2643256 4285690742
1.1696872 -0.19754353 3.2250288 4287862683
0.80984318 -0.066374272 3.3967645 4282991679
0.78708559 -0.066545948 3.4023857 4287400573
-0.46773461 -0.14200145 3.9509156 4292270298
0.69496423 -0.067883059 3.4182773 4287596408
0.67030877 -0.16358842 3.4135168 4289112750
0.37390184 -0.16130364 3.5421898 4285821290
0.41662669 -0.1456957 3.5196409 4285032814
0.66546094 -0.13439167 3.3921146 4287862688
0.74434614 -0.13347083 3.3507955 4287796636
0.084264897 -0.010371016 3.6534803 4282334780
0.67184818 -0.11268249 3.3658018 4282334006
0.54639423 -0.11631827 3.4229765 4282860869
-0.43445674 -0.10497464 3.8813376 4284702808
0.40043077 -0.10589721 3.4824331 4283321681
-13.370836 -0.01169479 9.9676838 4284181102
-14.355675 0.053635739 10.438504 4285827479
0.24069645 -0.078547902 3.5301013 4286480261
0.13105923 -0.073888905 3.5753012 4283584596
-13.263642 -0.013965992 10.0013 4284772480
-12.256458 -0.024763564 9.547451 4285498253
-11.978403 -0.026500324 9.4183693 4285167995
-12.236238 -0.022783669 9.5454006 4289709006
-0.68506616 0.018696597 3.9530346 4287136888
-0.63584787 0.026607879 3.9261618 4281478183
-0.62539917 0.038926728 3.9180067 4282728509
-0.66558856 0.043445569 3.9371715 4286610286
-0.41742325 -0.017323311 3.793474 4282334006
-0.68620318 -0.00089362182 3.9124911 4282267957
-1.2174642 0.0076641105 4.1606212 4282860356
-1.2584088 0.0098840613 4.1789699 4282597184
0.23173203 -0.20829646 3.8830914 4290423443
0.15267582 -0.27603573 3.8901961 4286610807
0.14705399 -0.26194128 3.885289 4284833877
0.12575282 -0.28800571 3.882509 4283978571
0.10639859 -0.28654179 3.8731863 4288652456
0.11019529 -0.24371584 3.8695908 4283518794
0.054631505 -0.27042788 3.8499877 4284900444
0.050389677 -0.25990254 3.8475718 4287138185
0.044556573 -0.26911393 3.8415713 4288981422
0.04254812 -0.2543295 3.8433447 4286216309
0.034672569 -0.23664355 3.8393724 4283057471
0.021215398 -0.2009664 3.8393624 4285821545
0.02034525 -0.21405788 3.8353543 4285755240
0.026289877 -0.25743973 3.8280435 4286283133
0.022443067 -0.23726501 3.8301265 4287664788
0.0073688845 -0.21351965 3.8246439 4288257184
0.0038425077 -0.25320795 3.7807431 4284702814
-0.038832523 -0.14011361 3.8054707 4287598483
-0.047849387 -0.13514154 3.7919562 4282597439
-0.063775003 -0.044458635 3.7649155 4287596408
-0.085043356 -0.014255008 3.732439 4288386180
-0.12770432 0.034230407 3.6747026 4282728509
-0.17719114 0.016678723 3.5831077 4287468702
-0.18622172 0.042748235 3.5723262 4286481551
-0.19015212 0.041802172 3.5640445 4281346596
-0.19388507 0.0294521 3.5612247 4286610802
-0.20297222 0.03771124 3.550792 4286413424
-0.22078776 0.054809958 3.5312352 4290033334
-0.23468588 0.064528845 3.5153263 4286151280
0.21643379 -0.20932321 3.8737602 4283452227
0.055092178 -0.2834084 3.8550634 4288191648
0.030039795 -0.2493384 3.8422239 4290560195
0.030956978 -0.26411706 3.8394141 4289639094
-0.017902499 -0.065345317 3.8274817 4286478189
-0.051121719 -0.16794339 3.7603931 4292270298
-0.096728235 -0.0017603852 3.7344646 4283256395
-0.20617506 0.088653557 3.7695596 4286025371
-0.22075112 0.10473014 3.7572856 4284772480
0.21746472 -0.22242352 3.8800981 4283451716
0.14545119 -0.27679855 3.8930235 4286610807
0.073472753 -0.2541959 3.8702214 4285294173
0.042921036 -0.28249186 3.8601642 4288191648
0.039543759 -0.25418898 3.8598039 4284374101
0.030659633 -0.26656747 3.8547678 4285361514
0.023847384 -0.22920483 3.8544378 4285557346
0.015723683 -0.24826302 3.8483129 4290560195
0.013369505 -0.235149 3.8484364 4283057471
0.0022371553 -0.21521938 3.847491 4288454305
-0.0070627965 -0.2002167 3.8460708 4285492838
-0.0026962056 -0.23893462 3.8378208 4289046701
-0.049254637 -0.052132878 3.8244314 4283716688
-0.063546717 -0.039342541 3.810744 4286020726
-0.075347617 -0.045662846 3.8026028 4287662459
-0.086615406 -0.13554382 3.7955678 4285690742
-0.083317198 -0.04019051 3.7951629 4287400573
-0.098703943 -0.043051589 3.7809072 4287596408
-0.12430825 -0.013014383 3.7508543 4288386180
0.23394482 -0.20974435 3.8821523 4290423443
0.11165736 -0.28797302 3.888056 4283978571
0.064339519 -0.25367108 3.8739989 4285294173
0.031390309 -0.28176147 3.8649969 4288191648
0.02753672 -0.25346532 3.8648407 4284374101
0.023460632 -0.26835361 3.8630869 4284900444
0.0012687533 -0.24735223 3.8544543 4290560195
-0.0013132339 -0.23429252 3.854676 4283057471
-0.010835375 -0.2141301 3.8552139 4285886568
-0.035090823 -0.21076654 3.8429971 4288257184
-0.065212615 -0.14395525 3.8481688 4283585111
-0.082167298 -0.050105684 3.8264117 4286676594
-0.29227275 0.1044633 3.7915652 4284772480
0.21948677 -0.20953859 3.8725765 4283452227
0.13597305 -0.27265757 3.8896818 4284768599
0.016605891 -0.25291285 3.8694332 4284374101
-0.0030454483 -0.22778755 3.8658006 4285557346
-0.054044772 -0.20988859 3.8511806 4288257184
-0.34249634 0.10445091 3.8156638 4284772480
-3.8135417 0.068505868 5.4803824 4283385920
-3.818819 0.069433257 5.4825354 4290423187
-3.8169322 0.069066383 5.4817309 4284373589
-3.8156674 0.069031432 5.4811935 4286809213
-3.8180981 0.069302566 5.4821835 4283780937
-3.8041103 0.067612998 5.4763603 4284768341
-3.7992613 0.066973403 5.4742589 4283781193
-3.7989254 0.066911012 5.474112 4288848805
-3.7983379 0.066827759 5.4738412 4286018410
-3.8046477 0.068040721 5.4765143 4286412909
-3.7975078 0.066688731 5.4734449 4289639095
-3.7976458 0.066800289 5.4734955 4285557087
-3.8034356 0.067972533 5.4759526 4287663490
-3.7996304 0.066749536 5.4742637 4288586921
-3.7951417 0.06651777 5.472393 4285426015
-3.7936237 0.066455014 5.471724 4287796373
-3.7938964 0.066269211 5.4717908 4288981680
-3.7951927 0.067201734 5.4723372 4283058242
-3.7993634 0.066525795 5.4739594 4290757062
-3.7934062 0.066025741 5.4713879 4286941841
-3.7863634 0.06594304 5.468441 4282925627
-3.7872088 0.066355154 5.4688253 4285425758
-3.786119 0.066175595 5.4683466 4282135855
-3.7827191 0.065398239 5.4668403 4285492582
-3.7843668 0.065753691 5.4675393 4287465859
-3.7857256 0.066306718 5.4681458 4282925886
-3.7829692 0.065838918 5.4669528 4286083431
-3.7843697 0.066375591 5.4675689 4284965981
-3.7840333 0.065361179 5.4673104 4290560456
-3.788986 0.065738477 5.4693599 4285230450
-3.7913051 0.065802991 5.4703088 4289310388
-3.7888949 0.065637223 5.4692945 4289573045
-3.7831192 0.065229751 5.466825 4291086285
-3.7795377 0.064977117 5.4652877 4290429126
-3.7748547 0.064726263 5.4632654 4287928219
-3.7767253 0.065938875 5.4641705 4284505430
-3.7302148 0.064617209 5.4446707 4282399800
-3.7721436 0.065045983 5.46209 4284439638
-3.7268879 0.064465418 5.4431992 4284440162
-3.7398756 0.06480106 5.4486017 4289902268
-3.7716646 0.064694375 5.4618177 4285097567
-3.7272348 0.064132646 5.4431686 4285361778
-3.7687633 0.064483993 5.4604831 4285295464
-3.7738357 0.064441539 5.4625802 4291743956
-3.7724609 0.064367488 5.4619627 4286875531
-3.7100008 0.063222438 5.4356856 4288191908
-3.7660317 0.064210869 5.459168 4288849837
-3.7722421 0.064454816 5.4617906 4291941334
-3.7710898 0.064203359 5.461257 4291217869
-3.7598193 0.064511247 5.4565334 4288521128
-3.7746785 0.064484887 5.4627638 4287797406
-3.6884868 0.062229712 5.426198 4288454823
-3.7582562 0.063972168 5.4557347 4290099388
-3.7270575 0.065885819 5.4427819 4281675821
-3.7634432 0.063989177 5.4578881 4285360480
-3.7622855 0.06396839 5.4573956 4289507766
-3.6787617 0.06181743 5.4219732 4286612103
-3.7568309 0.064167336 5.4551058 4283452746
-3.7433202 0.064199179 5.449378 4287664268
-3.7451947 0.064069152 5.4501481 4290363074
-3.755053 0.064095959 5.4542952 4290099387
-3.7429852 0.063855454 5.4491701 4287005307
-3.7342165 0.063723899 5.4454317 4289967026
-3.7575059 0.063759446 5.4552259 4290296768
-3.7370296 0.063812792 5.4465628 4288650135
-3.7362916 0.063704439 5.4462309 4290756801
-3.7509787 0.063716747 5.452404 4286018926
-3.7392967 0.063478559 5.4473844 4291086283
-3.7255175 0.063525282 5.4415379 4283715667
-3.6748943 0.061497409 5.4198546 4283782227
-3.7308075 0.063222043 5.4436946 4288717732
-3.7549002 0.063479587 5.4539123 4286217339
-3.6692119 0.06068255 5.4172096 4288586923
-3.7587163 0.063705735 5.4555464 4290428611
-3.7474508 0.063375071 5.4507203 4287598738
-3.7356553 0.06271036 5.4456291 4289836473
-3.7313631 0.062984847 5.4437737 4291744212
-3.7243428 0.062894896 5.4407153 4290034110
-3.7231846 0.063370243 5.4402537 4289047219
-3.7256777 0.062898591 5.4412622 4286149997
-3.7496562 0.06320183 5.4514627 4287401874
-3.7254851 0.062522061 5.4410381 4285031773
-3.7422526 0.06304314 5.4482398 4290757318
-3.7266395 0.063245341 5.4415088 4287731097
-3.7444296 0.062989719 5.4490767 4291612112
-3.7205098 0.062670566 5.4388061 4285097824
-3.6562264 0.060164683 5.4110188 4284572265
-3.7267084 0.06244323 5.4414167 4288060061
-3.7173862 0.062473319 5.4373002 4285623653
-3.7372406 0.062602676 5.4457917 4286809996
-3.6955571 0.061628334 5.4276714 4285954691
-3.7263117 0.061983854 5.4409099 4286478704
-3.7346103 0.062285744 5.4444942 4292072920
-3.7231078 0.062063139 5.4394784 4284834909
-3.7216094 0.061907947 5.4387569 4289507768
-3.7475922 0.063108467 5.4500833 4291612627
-3.6166401 0.058091458 5.3930693 4287994529
-3.6918261 0.061364438 5.4258199 4286415243
-3.7488406 0.063096344 5.4505982 4286020220
-3.669878 0.06526012 5.4166031 4287596410
-3.6685557 0.065014176 5.4160023 4283255623
-3.7272341 0.062060867 5.4410253 4291415505
-3.7003324 0.061631273 5.4292717 4286019963
-3.6191785 0.057873894 5.3936887 4290033338
-3.6589992 0.05955926 5.411046 4291349197
-3.5542431 0.055227991 5.3651333 4282399801
-3.7190955 0.061678849 5.4372964 4285295203
-3.5628605 0.056059543 5.368897 4282794820
-3.7193635 0.061498862 5.4373794 4291283919
-3.5753567 0.055894114 5.3742309 4287731357
-3.7130566 0.061643396 5.4346275 4284702809
-3.5792165 0.056273725 5.3758106 4287665308
-3.7538741 0.063322566 5.4524665 4291743955
-3.7504549 0.063185386 5.4509463 4287599771
-3.7096236 0.062132373 5.4330444 4284638311
-3.7200582 0.061605442 5.4375234 4291020749
-3.7229605 0.061721288 5.4387393 4290494404
-3.647701 0.058891602 5.4056349 4288125600
-3.7138207 0.061469305 5.4347019 4285755240
-3.690865 0.060713153 5.424603 4283256140
-3.7093096 0.062116895 5.4326982 4290428095
-3.5482266 0.055048328 5.361599 4285691004
-3.7022069 0.062010154 5.4295235 4291348940
-3.7573485 0.063693419 5.4537559 4291283662
-3.6451027 0.06488584 5.4047337 4283848530
-3.7170298 0.061751328 5.4358735 4290033853
-3.7141438 0.06184439 5.4345999 4290033595
-3.7109702 0.061780278 5.4331331 4285822326
-3.5440631 0.054552373 5.3591757 4287664276
-3.7126172 0.062251695 5.4339018 4284439895
-3.706881 0.061691776 5.431314 4284966238
-3.648221 0.065055497 5.4059119 4283453775
-3.7182443 0.06177631 5.436264 4287007117
-3.7694867 0.064468108 5.4590263 4289507510
-3.5979087 0.056495104 5.3827372 4290559940
-3.7588975 0.063859545 5.4542627 4284373331
-3.7030604 0.061640684 5.4294777 4285097824
-3.7056928 0.061711557 5.4305854 4288257441
-3.5323772 0.053880278 5.3533297 4288191908
-3.7076957 0.0615106 5.431354 4285229670
-3.6238124 0.064267397 5.3946252 4287071352
-3.7009268 0.061688364 5.4283214 4287665305
-3.7008493 0.061443996 5.4282007 4285887343
-3.724833 0.062206119 5.4387817 4291152076
-3.6266296 0.064728893 5.3956289 4282334265
-3.6954656 0.061282068 5.4256382 4285821553
-3.784739 0.070482023 5.4661236 4284573537
-3.5186439 0.053507321 5.3463736 4282663232
-3.6194129 0.064818084 5.3922219 4286283641
-3.5154276 0.053515669 5.3447456 4282465593
-3.5806108 0.056448404 5.3739781 4287467669
-3.6280313 0.065390244 5.3959494 4285821803
-3.5961514 0.063651368 5.3815627 4285228638
-3.7867107 0.070628591 5.466867 4285818452
-3.7004893 0.061406557 5.42732 4286282103
-3.5731225 0.062961072 5.3706465 4287531131
-3.5223203 0.053465623 5.3468165 4285624950
-3.408849 0.050201617 5.2957115 4285164143
-3.5028131 0.052926108 5.3377748 4288125856
-3.5556712 0.054272987 5.3612232 4287205015
-3.7844183 0.070662081 5.4656124 4286148705
-3.6979098 0.06147727 5.4257646 4287928221
-3.5519712 0.062713496 5.3602886 4287202938
-3.4629693 0.051236551 5.3190422 4287796632
-3.5307615 0.053589996 5.3496757 4288849580
-3.7282352 0.062726021 5.4393516 4287533979
-3.7850695 0.070720725 5.465786 4284900185
-3.7873638 0.070793964 5.466785 4289177502
-3.3161914 0.048373267 5.2514062 4286217089
-3.7465849 0.064953603 5.4475403 4291875540
-3.4783504 0.06016561 5.3249588 4287333237
