ply
format ascii 1.0
element vertex 240
property float x
property float y
property float z
property uchar red
property uchar green
property uchar blue
end_header
-0.358218 -0.588449 3.43201 108 0 0
-0.332085 -0.602188 3.41894 150 0 2
-0.332085 -0.602188 3.41894 150 0 2
-0.314347 -0.610799 3.41862 240 233 215
-0.312634 -0.594745 3.41968 131 1 0
-0.309404 -0.550538 3.44997 98 0 1
-0.288112 -0.584704 3.42536 132 0 3
-0.288112 -0.584704 3.42536 132 0 3
-0.28208 -0.578522 3.42897 248 245 252
-0.244815 -0.568596 3.4316 99 1 0
-0.238321 -0.529841 3.45691 107 1 1
-0.23244 -0.540684 3.44866 99 0 0
-0.23207 -0.522472 3.46005 240 238 241
-0.221763 -0.553781 3.43817 240 240 240
-0.205972 -0.478846 3.48699 126 0 1
-0.188977 -0.472734 3.49142 239 234 240
-0.183313 -0.501436 3.46597 96 1 0
-0.182664 -0.515515 3.45573 242 232 243
-0.182923 -0.501581 3.46479 95 1 1
-0.182923 -0.501581 3.46479 95 1 1
-0.177582 -0.544678 3.4371 70 0 2
-0.172802 -0.516082 3.45677 91 0 0
-0.170416 -0.506383 3.46218 233 231 236
-0.163601 -0.519332 3.45545 241 233 244
-0.163601 -0.519332 3.45545 241 233 244
-0.163371 -0.519543 3.45472 239 225 242
-0.163371 -0.519543 3.45472 239 225 242
-0.158456 -0.526142 3.44982 236 229 237
-0.158456 -0.526142 3.44982 236 229 237
-0.14502 -0.521178 3.45597 233 230 237
-0.141087 -0.53227 3.43997 84 0 2
-0.141087 -0.53227 3.43997 84 0 2
-0.135797 -0.511832 3.45043 89 1 0
-0.130117 -0.531954 3.4397 250 245 241
-0.129246 -0.519667 3.44546 239 227 237
-0.127811 -0.490811 3.46454 231 232 236
-0.124508 -0.501947 3.45808 232 231 237
-0.123489 -0.51395 3.44996 240 229 243
-0.108653 -0.513622 3.4507 80 0 0
-0.0980953 -0.424929 3.51798 231 221 230
-0.0903355 -0.508972 3.44819 233 230 237
-0.0903355 -0.508972 3.44819 233 230 237
-0.087824 -0.398104 3.53164 57 0 0
-0.087824 -0.398104 3.53164 57 0 0
-0.0827329 -0.512812 3.44542 106 0 0
-0.0825176 -0.460946 3.48479 237 223 236
-0.0746274 -0.512017 3.44884 252 254 253
-0.073812 -0.511478 3.44625 254 255 253
-0.0647041 -0.422765 3.50718 89 0 1
-0.059695 -0.446902 3.48859 238 222 232
-0.0486919 -0.423935 3.50863 230 225 232
-0.0430513 -0.490033 3.45464 231 225 229
-0.037796 -0.461682 3.47877 219 208 224
-0.037796 -0.461682 3.47877 219 208 224
-0.0294377 -0.483801 3.46068 222 218 233
-0.0274581 -0.399728 3.44334 88 0 0
-0.0173723 -0.479981 3.46274 226 220 232
-0.013516 -0.492075 3.46508 254 255 255
-0.0126557 -0.454258 3.47835 70 0 0
-0.00226637 -0.470543 3.4693 238 218 229
0.004959 -0.441889 3.48498 76 2 3
0.00507975 -0.474184 3.45725 68 0 0
0.00789313 -0.435968 3.49217 228 205 225
0.00789313 -0.435968 3.49217 228 205 225
0.0153556 -0.426016 3.49703 220 206 219
0.0197428 -0.430782 3.49403 221 207 220
0.0203679 -0.473251 3.45449 64 0 1
0.0348605 -0.475401 3.4534 255 255 255
0.045863 -0.462465 3.46031 60 0 4
0.0481841 -0.472167 3.45428 245 244 240
0.0502804 -0.45248 3.46819 58 0 3
0.0513039 -0.44437 3.47374 213 206 222
0.0744783 -0.105424 3.17307 104 0 1
0.0784603 -0.44025 3.46272 53 0 3
0.0799351 -0.117821 3.17325 111 0 0
0.0799351 -0.117821 3.17325 111 0 0
0.0877001 -0.118167 3.17946 246 235 233
0.0885694 -0.108929 3.18355 103 0 0
0.0973957 -0.106574 3.19396 94 0 0
0.107815 -0.417449 3.48566 205 197 212
0.100898 -0.143981 3.16922 247 252 246
0.110001 -0.404534 3.49439 71 0 0
0.110722 -0.386034 3.51094 40 0 0
0.107803 -0.0515754 3.25065 253 248 244
0.120661 -0.429295 3.47847 55 1 0
0.127738 -0.383782 3.51103 202 174 197
0.124743 0.0180136 3.32669 249 250 245
0.123857 -0.0295029 3.28494 245 244 242
0.123865 -0.0445912 3.2694 118 0 0
0.123089 -0.129081 3.20755 111 0 0
0.126583 -0.063622 3.25992 244 243 241
0.130338 -0.0913927 3.24823 104 0 0
0.130338 -0.0913927 3.24823 104 0 0
0.135104 0.0435696 3.36237 250 232 230
0.130187 -0.13704 3.20988 255 241 238
0.130187 -0.13704 3.20988 255 241 238
0.130462 -0.14864 3.20709 103 0 0
0.140004 -0.395415 3.50228 198 179 198
0.13628 0.0101923 3.33248 120 0 0
0.143646 -0.0721051 3.27781 106 0 0
0.154921 -0.366912 3.51809 49 1 0
0.154665 -0.424558 3.46671 41 0 0
0.14565 -0.155547 3.20823 249 250 245
0.165363 -0.397851 3.48561 49 0 0
0.173073 -0.376473 3.50682 21 0 0
0.167796 -0.107761 3.28356 103 0 0
0.166686 -0.159987 3.24506 107 2 0
0.182093 -0.405546 3.4783 177 159 175
0.18472 -0.354615 3.5182 192 169 189
0.173786 -0.14941 3.25686 109 0 0
0.180585 -0.0677832 3.33383 100 0 0
0.179421 -0.101173 3.29695 249 246 241
0.181957 -0.0590933 3.34498 106 0 0
0.188688 -0.380834 3.50053 184 166 188
0.180091 -0.112911 3.29573 105 1 0
0.190345 -0.398971 3.47989 196 171 193
0.183246 -0.130906 3.28382 114 0 2
0.201669 -0.385167 3.49172 34 0 0
0.19275 -0.119402 3.2943 248 245 240
0.196606 -0.109926 3.31875 247 247 245
0.201418 -0.0461734 3.37309 106 1 0
0.196838 -0.161596 3.27546 108 0 0
0.202264 -0.0753227 3.36104 248 245 238
0.200349 -0.152075 3.28905 250 251 245
0.212244 0.017155 3.44111 250 249 245
0.21254 0.0170554 3.4398 250 249 245
0.221401 -0.0878872 3.36946 255 244 244
0.225065 -0.194311 3.28826 98 0 0
0.239083 -0.0540022 3.42642 104 0 1
0.23974 -0.18287 3.31664 104 0 0
0.25743 -0.0440062 3.45752 101 1 1
0.261229 -0.108306 3.40647 108 0 0
0.261229 -0.108306 3.40647 108 0 0
0.26309 -0.117936 3.40155 247 245 248
0.282241 -0.111405 3.43572 255 238 234
0.287333 -0.175557 3.38667 255 242 236
0.303633 -0.143867 3.41614 246 244 245
0.298962 -0.397153 3.30332 227 226 231
0.327009 -0.108928 3.50352 244 243 241
0.322084 -0.362018 3.34759 227 227 227
0.341784 -0.133643 3.50153 116 0 0
0.342613 -0.14402 3.47565 115 0 0
0.369896 -0.11 3.53683 119 1 0
0.356045 -0.349473 3.36373 222 228 224
0.361983 -0.379144 3.33953 232 228 227
0.376774 -0.179423 3.47671 253 239 236
0.376774 -0.179423 3.47671 253 239 236
0.362561 -0.372172 3.34163 235 233 236
0.369219 -0.393551 3.31329 79 1 1
0.381091 -0.376873 3.33776 101 1 3
0.381091 -0.376873 3.33776 101 1 3
0.411423 -0.0887851 3.58508 186 115 155
0.39666 -0.408478 3.30203 251 231 233
0.39666 -0.408478 3.30203 251 231 233
0.407615 -0.34593 3.37543 233 231 234
0.407615 -0.34593 3.37543 233 231 234
0.412538 -0.373843 3.34868 240 240 242
0.412538 -0.373843 3.34868 240 240 242
0.44101 -0.108354 3.58431 254 245 250
0.44101 -0.108354 3.58431 254 245 250
0.409841 -0.393624 3.31851 75 1 0
0.418663 -0.357484 3.36773 80 2 2
0.385013 -0.771051 3.02749 223 41 102
0.430637 -0.361019 3.36573 217 192 196
0.429837 -0.388155 3.33501 109 0 0
0.429837 -0.388155 3.33501 109 0 0
0.439365 -0.378461 3.34421 86 2 2
0.433548 -0.728731 3.00799 185 12 68
0.450492 -0.780493 3.039 238 227 209
0.448456 -0.744186 3.02122 255 255 255
0.455233 -0.770381 3.04005 255 254 255
0.465612 -0.730879 3.02513 141 25 36
0.0799 -0.117698 3.16784 111 0 0
0.443031 -0.109318 3.60269 254 245 250
0.427249 -0.721024 2.99452 254 245 250
0.438614 -0.764208 3.02864 217 16 71
0.468529 -0.736603 3.04651 141 25 36
0.484425 -0.735707 3.02034 197 107 133
-0.240714 -0.550301 3.45013 97 1 2
-0.138981 -0.433333 3.52851 81 0 0
0.0892648 -0.117971 3.17428 252 240 242
0.0982615 -0.107413 3.19007 98 0 1
-0.121861 -0.52705 3.45234 81 1 0
0.107921 -0.0507931 3.25069 250 244 244
-0.0933416 -0.391356 3.55559 218 188 200
0.117064 -0.0336714 3.27667 133 0 19
0.127464 0.0330576 3.34687 114 0 0
0.109851 -0.132219 3.19115 246 246 244
0.123986 -0.0454472 3.26805 114 0 0
0.140173 0.0369549 3.37368 252 237 230
0.130605 -0.0914195 3.24713 100 0 0
0.141915 0.00517197 3.3511 255 242 239
0.146187 -0.156741 3.20473 246 248 247
-0.0209679 -0.470833 3.47762 69 1 2
0.16835 -0.107248 3.28118 112 0 0
0.178789 -0.010549 3.38851 132 0 4
0.170177 -0.1263 3.27185 253 245 243
0.164438 -0.174085 3.23081 250 248 249
0.16706 -0.159632 3.24357 99 0 1
0.180897 -0.175144 3.24539 253 227 228
0.191071 -0.171827 3.25804 102 0 2
0.210025 -0.156029 3.30567 114 0 0
0.205721 -0.200805 3.25704 106 0 0
0.23238 -0.0834627 3.39428 110 0 0
0.230379 -0.185093 3.31407 113 1 0
0.252372 -0.100603 3.41229 239 239 241
0.271718 -0.0929487 3.45441 109 0 0
0.275762 -0.10305 3.45121 114 0 0
0.319653 -0.152581 3.44937 253 248 244
0.323892 -0.144895 3.48091 254 245 240
0.366066 -0.110045 3.55953 106 1 0
0.367097 -0.12585 3.5481 91 2 0
0.367571 -0.147378 3.52202 255 244 242
0.370701 -0.141448 3.53132 104 0 0
0.323657 -0.386481 3.32345 236 220 220
0.325224 -0.407436 3.29545 100 1 4
0.373597 -0.179709 3.49557 253 231 233
0.336793 -0.411484 3.29337 233 227 227
0.437469 -0.724057 2.98579 213 58 116
0.437556 -0.759936 3.01725 238 62 124
0.459656 -0.738987 3.06005 162 35 52
0.469323 -0.733044 3.00664 247 245 248
0.498018 -0.761986 3.02037 255 255 255
0.0154085 -0.422222 3.46444 220 206 219
0.0127697 -0.425472 3.47711 72 1 0
0.117703 -0.105773 3.14535 79 0 0
0.158904 -0.0431872 3.29825 255 253 254
0.16362 -0.159116 3.24855 110 0 3
0.295152 -0.391973 3.2576 154 104 107
0.317559 -0.356847 3.29679 178 130 142
0.303023 -0.144296 3.40894 131 80 77
0.174943 -0.0426712 3.2091 252 247 244
0.203814 -0.081496 3.27149 255 230 233
0.195758 -0.105755 3.27447 254 242 244
0.26814 -0.0464836 3.24427 253 251 252
0.196344 -0.0517184 3.24276 255 253 254
0.14288 -0.0503932 3.22295 114 0 1
0.102369 -0.0547864 3.18645 119 0 0
0.198039 -0.0519461 3.24441 250 198 200
0.214686 -0.051596 3.25506 110 2 0
