# .PCD v0.7 - Point Cloud Data file format
VERSION 0.7
FIELDS x y z rgb
SIZE 4 4 4 4
TYPE F F F U
COUNT 1 1 1 1
WIDTH 1088
HEIGHT 1
VIEWPOINT 0 0 0 1 0 0 0
POINTS 1088
DATA ascii
-0.33949232 0.18441743 4.8061981 4285625215
-0.29174012 0.13391213 4.7635374 4287597970
-0.36507559 0.15237568 4.7014475 4285887095
-0.29318255 0.21936779 4.727356 4289374365
-0.31051123 0.14114976 4.713078 4281742385
-0.29812849 0.1154958 4.7070775 4288519844
-0.30028209 0.10617138 4.6834407 4287203986
-0.29965195 0.11126732 4.6727343 4284045664
-0.31973308 0.18055871 4.5842981 4282727994
-0.28155032 0.063955426 4.5987868 4288981165
-0.32567462 0.19027133 4.5593619 4286081887
-0.33063969 0.20113629 4.5271373 4289308829
-0.32409304 0.20234139 4.499135 4289374365
-0.32456818 0.18048228 4.4882746 4282530616
-0.26811552 0.041513588 4.4848986 4287403426
-0.31634852 0.13951012 4.4472523 4285032557
-0.31213191 0.1261493 4.4298558 4286613653
-0.307338 0.15902713 4.426887 4283387471
-0.25446135 0.021054821 4.4476581 4290165952
-0.28387928 0.067448229 4.4221344 4282334524
-0.26722685 0.060498904 4.4132166 4282136631
-0.29659966 0.14474876 4.3882742 4289308829
-0.26241985 0.035644658 4.399941 4290559420
-0.30115795 0.086594708 4.3769612 4283387732
-0.26473987 0.043737721 4.3772526 4286743951
-0.28379214 0.051966652 4.352572 4284704880
-0.29541698 0.068908334 4.3434258 4288454051
-0.26989615 0.048543587 4.3379712 4289309616
-0.28155261 0.053009298 4.3209729 4285164143
-0.23542456 0.024800438 4.3379693 4287599000
-0.22379659 -0.037041016 4.3166542 4284244848
-0.27507865 0.053012509 4.2940435 4283057994
-0.2716983 0.085147634 4.2942371 4281676333
-0.25000232 0.015161066 4.2942462 4288915116
-0.23940505 -0.011844419 4.2867665 4284704623
-0.16925076 -0.10307238 4.3113551 4290757317
-0.12829264 -0.16796172 4.2906246 4286150515
-0.11757365 -0.18913636 4.2804766 4288322978
0.38449767 0.7448988 4.4738717 4282992968
0.29441196 0.16416772 4.4082928 4284573543
0.42230323 0.71165723 4.4555802 4289905616
-0.1295065 -0.18336052 4.2455058 4290165697
0.37016788 0.19870508 4.3949943 4284572769
0.27342421 0.17477545 4.3490529 4285429880
-0.12099062 -0.22848746 4.1943831 4289245367
0.25685033 0.1592183 4.3255763 4287996075
0.26018223 0.18367982 4.326138 4285627257
0.25960833 0.1486471 4.3233991 4286548631
0.27213418 0.68589395 4.3304348 4283056956
-0.070104331 -0.26122671 4.1977205 4286940037
-0.22135019 -0.06093619 4.1422887 4285361522
-0.17854501 -0.17875306 4.1559 4286743695
0.22794853 0.72669327 4.2990069 4287405482
0.27003357 0.16738881 4.3046722 4285429896
0.28173777 0.11973364 4.2960119 4283256913
0.26697636 0.18047485 4.2889919 4288125599
0.25274578 0.70577037 4.2863512 4288588989
0.28348097 0.10428411 4.2927961 4290824143
0.22616507 0.71129423 4.2766891 4282859063
-0.17483453 -0.18719089 4.128499 4286217606
-0.10568377 -0.27268124 4.150558 4289837247
-0.16173066 -0.20899093 4.1264272 4286875021
-0.18912989 -0.14583792 4.106781 4286348675
-0.20036961 -0.087559305 4.1016679 4285229935
0.25928748 0.18284637 4.2547817 4281676079
0.24468587 0.19341305 4.2448072 4282268473
-0.18398598 -0.15618917 4.0990329 4287598485
-0.16226326 -0.20639712 4.1045108 4287072139
-0.15788089 -0.21156679 4.0944419 4286348418
0.1959493 0.23691356 4.2123365 4282268473
0.26544711 0.16024764 4.2341056 4281347372
0.18512696 0.24470134 4.1891813 4281214755
-0.48888987 0.7659843 3.9495618 4284704872
-0.1475115 -0.21075179 4.0218015 4288454564
-0.51531059 0.72360009 3.9095137 4284836974
-0.14932968 -0.1934516 4.0126457 4282860357
-0.085636467 -0.3481538 4.019465 4291678163
-0.50899231 0.68619651 3.8859217 4289116616
-0.30911246 0.46326005 3.9357119 4285494659
-0.7123211 0.70232099 3.8168414 4285230957
-0.47002769 0.64730775 3.8860006 4288853442
-0.32435963 0.46713427 3.9266088 4288788423
-0.34801671 0.47857657 3.9173584 4285562004
-0.084260575 -0.29883292 3.9862823 4290427839
-0.3310644 0.45865589 3.9179204 4286218900
-0.52786881 0.65705979 3.8598046 4285364609
-0.41433582 0.6145947 3.8779705 4285890176
-0.79678595 0.66259766 3.7614226 4284376164
-0.80195785 0.6523608 3.7565322 4283322964
-0.060941804 -0.017171219 3.9625041 4287137917
-0.4376494 0.50112265 3.8383677 4286680988
-0.49384263 0.59256977 3.8215752 4288854216
-0.46009719 0.53340137 3.8295057 4284573286
-0.81600493 0.64012051 3.7258193 4288196542
-0.52655321 0.60938835 3.8022385 4284838004
0.060501549 -0.38800621 3.9580517 4290493890
-0.006702485 0.31854102 3.9381514 4285100142
-0.095462553 -0.27987343 3.9092593 4284572520
0.043235704 -0.44382408 3.9267006 4291678419
-0.58386642 0.58812642 3.7402289 4288394178
-0.56418651 0.56167394 3.7432737 4284508007
0.072970696 -0.45443177 3.8934603 4292401627
-0.059026554 -0.32314771 3.853806 4288717479
-0.63300264 0.60032296 3.7094648 4285430404
-0.63849646 0.59532362 3.7020464 4289051338
-0.65934539 0.59518081 3.6862848 4289051852
0.11414842 -0.38697991 3.8732729 4291875284
-0.061473966 -0.30397257 3.8275199 4288980395
-0.67321229 0.5931372 3.6704869 4287604148
-0.04430677 -0.31196517 3.8193262 4286941328
-0.62589681 0.55364907 3.6714127 4286418587
-0.69243801 0.59028536 3.6460319 4287076775
0.066086851 -0.41252291 3.8211756 4284966495
-0.038481917 -0.3052434 3.7962964 4283979866
0.084029898 -0.45749834 3.8186872 4291941333
0.17644595 -0.57959235 3.8348022 4290691783
-0.036227264 -0.31888688 3.7698405 4284243558
0.020522244 -0.35092101 3.7233753 4290494662
0.15182403 -0.58122426 3.7296557 4291348680
0.11909845 -0.42131314 3.6960001 4287073927
0.15077567 -0.53439087 3.7019143 4281347367
-0.40062511 0.58168733 3.5920706 4281347887
0.075763166 -0.26429814 3.6728516 4286414455
0.16179578 -0.59079808 3.6798174 4283058246
-0.46049714 0.65638989 3.5565252 4283917431
-0.46228641 0.62799621 3.5505764 4284706172
-0.37067503 0.56015337 3.5590761 4290431445
0.14312221 -0.38277897 3.6533816 4290297536
-0.48620346 0.58673525 3.5331812 4286682277
0.15343831 -0.48693028 3.6510775 4287663490
-0.48551592 0.64693397 3.5302811 4283124812
-0.48053876 0.6035015 3.5303233 4283322448
-0.51163149 0.63388699 3.5172932 4283586135
-0.51580739 0.61700416 3.5081835 4284113772
0.16648969 -0.57102108 3.6176932 4281938990
0.1954632 -0.56437457 3.6200366 4287663500
0.17640527 -0.58763152 3.6137264 4287072396
-0.54422075 0.62190473 3.4836068 4284575098
-0.5301488 0.58874869 3.4699931 4286682019
-0.58286709 0.65747368 3.4606528 4286748584
-0.55096871 0.61324847 3.4597285 4287865265
-0.47252104 0.54414022 3.4722846 4290759894
-0.53448683 0.59479696 3.46067 4286616739
-0.58477265 0.64461762 3.451205 4286418847
-0.60322899 0.66056776 3.446094 4287472566
0.19229093 -0.51829064 3.5635588 4284439895
0.21372081 -0.4838593 3.5502505 4286284155
0.22875822 -0.48502663 3.5239134 4283389270
0.23108138 -0.45752925 3.5230839 4287467399
0.2351764 -0.44309303 3.5081248 4286943893
0.25112256 -0.4188056 3.4943156 4283255629
-0.2816745 0.14073536 4.5671139 4285551936
-0.29169995 0.16332135 4.5452085 4281542946
-0.1733738 -0.069149479 4.0429449 4289508537
0.083394408 -0.46118733 3.7942545 4289903038
-0.23749033 0.01077251 4.3736634 4291480523
-0.24779837 0.019466292 4.3685541 4284638301
-0.27296925 0.027557854 4.2971859 4286546570
-0.17612734 -0.10710542 4.2934875 4284441969
-0.23238635 -0.010927891 4.2023163 4286282622
-0.23340046 -0.024731632 4.1997957 4284177244
-0.21838571 -0.062641107 4.1622663 4281873715
-0.20270638 -0.11179619 4.1289887 4282071093
-0.16945675 -0.090497576 4.036727 4282663491
0.091337003 -0.47595978 3.8335443 4291217867
0.089867413 -0.47965834 3.7989798 4285888626
-0.4915528 0.59012341 3.5253122 4286287261
0.17303354 -0.50164288 3.621984 4281412393
0.17253122 -0.51156175 3.6117191 4285360219
0.16996989 -0.56727076 3.6083868 4282662713
0.17278406 -0.56946772 3.5980685 4288256154
0.21113054 -0.47860318 3.5681355 4282400828
0.20276317 -0.52335531 3.5372517 4281807663
0.20770563 -0.50685126 3.5366476 4281479212
0.23672757 -0.45516935 3.5091121 4283717210
0.25382662 -0.40950733 3.4588358 4285891223
-0.26361665 0.26087567 5.0863605 4287464567
-0.24199465 0.25054708 5.0877347 4292467676
-0.26315701 0.25779226 5.0761566 4287859324
-0.25188017 0.24186738 5.0549169 4292796126
-0.31731126 0.22979936 4.9650207 4287730846
-0.36965835 0.22956401 4.8725514 4292203475
-0.34300777 0.20490085 4.8507099 4285822588
-0.3398506 0.20454057 4.8379078 4283057992
-0.34660509 0.19755979 4.8226862 4283124303
-0.31809631 0.1661347 4.8283234 4284505442
-0.40050888 0.19311504 4.7545185 4281807664
-0.33161882 0.16964509 4.7715054 4285361523
-0.3011477 0.13235047 4.7600169 4288453535
-0.37940952 0.17470115 4.719573 4281873972
-0.31753269 0.1429871 4.7396064 4286743953
-0.2915273 0.11404043 4.7344704 4282400316
-0.2952823 0.12242661 4.719388 4288388774
-0.32191241 0.14021048 4.7089534 4281742129
-0.31627354 0.12454884 4.6984715 4285954180
-0.31255522 0.104408 4.6791024 4287006609
-0.34871212 0.13922437 4.6634245 4284835436
-0.31349471 0.10862945 4.6678829 4283585114
-0.31111455 0.11426993 4.6594758 4282070574
-0.30766913 0.10118885 4.65201 4282532677
-0.33047062 0.11220139 4.6358852 4289441717
-0.28965124 0.063800186 4.5584145 4287796116
-0.27515239 0.047345255 4.5394769 4288981423
0.69769543 0.83345127 4.846005 4285363830
-0.33488613 0.18693396 4.5175314 4282267444
0.69784546 0.84232187 4.8316402 4284574831
0.6890012 0.83357668 4.8275995 4287603123
0.69910562 0.81825167 4.8261762 4289576910
0.65713537 0.83809751 4.7744198 4287274673
0.61533988 0.82023942 4.7163787 4284705132
0.5908317 0.82635421 4.7058959 4288852931
-0.31070065 0.1157528 4.4336433 4287600545
-0.3215152 0.13233317 4.4247417 4286613397
-0.29334569 0.083719134 4.406455 4284901742
-0.28587103 0.067225233 4.4032769 4288126375
0.48180071 0.8178376 4.6062212 4284046175
-0.31119272 0.082916066 4.3801241 4290493890
-0.25819746 0.033399533 4.3797555 4290231491
0.43797359 0.84467316 4.5615325 4289505693
0.43238306 0.7840324 4.5499682 4284573299
-0.29758209 0.073074326 4.3533196 4290230460
-0.26554513 0.027464358 4.3547316 4288849584
0.39253023 0.79279357 4.5224309 4285100675
0.37505132 0.78008115 4.5050693 4282993227
0.37935823 0.83367783 4.4993753 4282926656
0.38869828 0.71950239 4.4901109 4290103251
-0.23667692 -0.010257377 4.3250594 4289836477
0.3663021 0.7415204 4.4693322 4283058761
0.37278444 0.724626 4.462492 4283980633
-0.25101563 -0.021387206 4.2630525 4289573041
-0.18482237 -0.12601897 4.2735271 4284244331
0.35739696 0.19823889 4.3920341 4284506720
-0.23874354 -0.014139345 4.2226963 4285033588
0.24931654 0.14855911 4.331284 4287733934
-0.11008278 -0.20987207 4.2448106 4290888647
-0.2303953 -0.058065865 4.2119474 4282465852
0.2458338 0.18293855 4.3042822 4282007104
0.21593916 0.7248258 4.2963958 4287142310
0.22925641 0.71091008 4.2989607 4287998394
0.24731027 0.18954271 4.2957821 4287141799
0.24346156 0.69597983 4.2952738 4283187771
0.23896791 0.70428789 4.2834244 4288589245
0.25351784 0.19012077 4.2802029 4290099389
0.21642153 0.71018428 4.2746196 4283188801
-0.23307982 0.0015984206 4.1719494 4287993241
0.2557624 0.1772242 4.2743034 4282994003
-0.19151223 -0.14352907 4.1651669 4287006090
-0.2181356 -0.020474823 4.1408997 4286217344
0.21597013 0.21033549 4.2280798 4281609770
0.25052676 0.17090498 4.230794 4282003756
-0.17714907 -0.17183559 4.1255107 4281676077
-0.10623778 -0.27090678 4.1163945 4285823359
-0.2011413 0.81168842 4.1022434 4284704098
0.11959255 0.29286671 4.1567726 4282070578
-0.13225761 -0.24571569 4.0969119 4288059033
0.093358569 0.27740464 4.1392765 4284177496
-0.11074226 -0.26057026 4.090765 4287993759
-0.22406895 0.77477288 4.066391 4289116617
-0.14086884 -0.24478413 4.07233 4283321165
-0.1360653 -0.26115412 4.0544043 4283978570
-0.32367864 0.71894217 4.0171962 4288590012
-0.42514849 0.77770633 3.9953322 4288721085
-0.034876753 0.14338899 4.0553222 4282859840
-0.19313757 0.64684027 4.0168543 4288919237
-0.15558679 0.35938922 4.0173535 4282992969
-0.15878072 -0.06749136 4.0137215 4289769388
-0.17639209 0.38976908 4.0132046 4286946219
-0.1692574 0.37471586 4.0102057 4288459457
-0.27783331 0.66315484 3.9930658 4285495160
-0.077678077 -0.31788605 4.01196 4289704888
-0.23326737 0.44459829 3.9846609 4287473336
-0.26619458 0.46962768 3.9739761 4284573544
-0.1253079 -0.25690046 3.9912374 4287269776
-0.11660796 -0.28644472 3.9730544 4289572530
0.0093606543 0.21438558 3.9945459 4283057219
-0.082548589 -0.30389291 3.9687972 4290625217
-0.34312725 0.50224227 3.9320195 4284507750
-0.11719614 -0.25165954 3.9613128 4284967023
-0.11060362 -0.27578488 3.9604306 4288848807
-0.31276605 0.45393249 3.9236724 4288984516
-0.38091418 0.60093939 3.9074976 4283718491
-0.29934904 0.43776372 3.9140224 4286745502
-0.55629951 0.7039786 3.8776062 4286287260
-0.32609603 0.44603598 3.9048274 4286154390
-0.35726959 0.46464962 3.8957119 4286877087
-0.10208469 -0.27506104 3.9247873 4288388258
-0.65326947 0.70963943 3.8507464 4288128951
-0.51805496 0.66771042 3.8674316 4288985285
0.045884077 -0.45922664 3.9273214 4291085768
0.025462791 -0.37807724 3.8626418 4292138456
-0.49421766 0.54863733 3.7988074 4284771699
-0.78066683 0.64141262 3.7641585 4285826709
-0.60705847 0.61117834 3.7513828 4284047459
0.098945066 -0.48758414 3.8061509 4289771196
0.087489992 -0.43499377 3.8050566 4285032289
-0.007197347 -0.3540934 3.7890272 4291019717
0.15130387 -0.5958584 3.8000286 4288389287
0.0072081704 -0.3714669 3.7807798 4290757061
-0.66554719 0.60698783 3.7115591 4289444552
0.085713796 -0.45731032 3.7710204 4287268734
-0.65874839 0.60782295 3.7030013 4283850864
-0.60819757 0.56431413 3.7019217 4286616483
0.12707931 -0.57111663 3.7606671 4291151301
0.14661679 -0.5560019 3.7428861 4285295211
0.1562237 -0.5896979 3.7369771 4283584587
0.097098537 -0.41149083 3.7261927 4287335560
0.15046629 -0.56869686 3.7293952 4286282105
0.14438348 -0.51893836 3.7229555 4284507238
-0.68418658 0.6042102 3.6534197 4284639079
0.15962207 -0.59121591 3.7153785 4282137140
0.1209313 -0.429398 3.7054062 4291613655
0.12892088 -0.45186332 3.7042167 4287795334
0.14460663 -0.49244756 3.7026501 4287007362
0.1605276 -0.58154261 3.7030389 4281741355
0.15312296 -0.51913494 3.6899431 4281938736
0.1505264 -0.50842309 3.681073 4283848538
0.14013052 -0.44379663 3.6779191 4291152846
0.14628668 -0.46428722 3.6666379 4287336589
0.15455511 -0.50175524 3.6668253 4285229666
0.1382004 -0.39829135 3.665472 4289968571
0.15886095 -0.51456267 3.6652935 4281807664
0.1699651 -0.48259926 3.6594369 4289704884
0.16190234 -0.57961166 3.6492226 4281741867
0.1562977 -0.41836283 3.6491323 4290955210
0.17341343 -0.57116985 3.6318305 4281807404
0.17111194 -0.58763671 3.627902 4285361521
-0.46425992 0.58105886 3.5476322 4288129726
0.19093062 -0.55205721 3.5662167 4281610027
0.19390854 -0.5441426 3.5590427 4281807920
-0.41615844 0.55817759 3.5293474 4289838795
0.25622547 -0.39913568 3.5520828 4290291600
0.19628522 -0.53667021 3.5488229 4285625460
0.2021253 -0.50909883 3.5452924 4284439637
0.22920999 -0.47472978 3.5348537 4284178010
0.21725303 -0.49417537 3.532594 4286152054
-0.50536585 0.59694666 3.5097907 4284904321
0.21689504 -0.51399046 3.5266581 4282268471
0.24501264 -0.44709346 3.4965873 4286415752
0.26442707 -0.39396757 3.4610415 4290291857
-0.64416158 0.71036941 3.421576 4287602608
0.14109151 -0.4442839 3.6580343 4286743934
-0.27957174 0.045036167 4.3073874 4288980909
0.16135839 -0.49620309 3.6546657 4286479734
-0.32510197 0.16255595 4.7505341 4282465592
-0.3341864 0.19855814 4.5584564 4283978831
-0.33429402 0.19126551 4.5448461 4285819231
0.24709861 0.70554721 4.3191614 4283189573
-0.17277546 -0.1766903 4.1395617 4283650904
-0.075071007 0.099294633 4.0987864 4282924859
-0.16380021 -0.073604129 4.0237265 4289901488
-0.16317719 -0.038574465 4.0108995 4282662972
-0.080176942 -0.31822899 4.0007148 4289375923
-0.012356171 -0.38761964 3.9387069 4291678162
0.093864828 -0.46295446 3.8069928 4290363074
-0.045404848 -0.29984704 3.7910149 4282071607
0.088609278 -0.43170974 3.7504396 4290889675
0.15024373 -0.56245208 3.7056084 4285492592
0.11828803 -0.39808497 3.6854105 4287204998
0.25757954 -0.49496222 3.4770372 4290159756
-0.25278655 0.24811392 5.0843606 4292664798
-0.33354315 0.28217193 5.0545325 4290757062
-0.35132208 0.28128144 5.0343385 4290428096
-0.36328819 0.28672472 5.0274868 4291216839
-0.33879551 0.27503252 5.032721 4290691526
-0.35626045 0.28030032 5.0236673 4286217351
-0.23719504 0.22684918 5.0480318 4287203989
-0.36439836 0.25490928 4.9285302 4283649351
-0.30096495 0.20547391 4.9251404 4283124044
-0.33892077 0.20703231 4.8784599 4287927710
-0.33766001 0.21334745 4.8495359 4289243307
-0.39455071 0.1946031 4.7691283 4290295995
-0.32046744 0.15174046 4.753696 4288191135
-0.36724606 0.16818148 4.7110658 4281807664
-0.35608122 0.15176189 4.6903696 4284769387
-0.41849646 0.1737618 4.6687956 4283783005
-0.32125798 0.12504388 4.6717114 4287531922
-0.29365221 0.095778555 4.6565232 4286941069
-0.38540936 0.14564303 4.6289792 4291415504
0.68891919 0.81553411 4.8241839 4289708238
-0.31172028 0.10444261 4.6156125 4291020488
0.64312887 0.83161831 4.7621164 4288326844
-0.29930979 0.083308071 4.5713806 4286546311
-0.21130838 0.020667292 4.5864224 4287862175
-0.37115669 0.15796952 4.5316653 4280885532
-0.29529253 0.067038648 4.5406694 4290493889
0.53138173 0.82685351 4.6703877 4288788167
0.64186776 0.77925253 4.685339 4284770921
-0.27671 0.048473638 4.4963808 4291086284
-0.33786997 0.094022252 4.485158 4282136626
0.47825083 0.83301473 4.6161842 4282730056
0.44361588 0.83076829 4.5748816 4283321932
0.42233098 0.83676511 4.5461669 4283716688
0.39554903 0.7828179 4.5262289 4286352542
-0.19703795 -0.010229141 4.4378676 4291941591
0.39133659 0.76371258 4.5166039 4284245362
-0.29863179 0.10596225 4.4136515 4287401618
0.345079 0.71152431 4.4843431 4290037715
0.35054517 0.83126336 4.4764442 4282665032
-0.30573639 0.098384477 4.3866882 4286808967
-0.25311255 0.032125149 4.3889585 4286348409
-0.28622273 0.063179746 4.3646703 4286481808
-0.29176256 0.085414506 4.3389997 4286085246
-0.25872824 0.026675493 4.3416762 4289309359
-0.29498714 0.092487931 4.3322535 4286677641
-0.2070975 -0.034702025 4.3370638 4288258212
-0.28737417 0.077505469 4.3267007 4286216831
-0.043664694 -0.18552904 4.3477988 4286677897
-0.22261283 -0.032366328 4.3268948 4288785589
-0.26885781 0.045830179 4.2907519 4283584082
-0.27734536 0.051776063 4.2831168 4288716963
-0.28111777 0.069802523 4.2828007 4286349451
0.23056328 0.74527383 4.3200707 4285825674
-0.11505836 -0.19859162 4.2690525 4287730067
0.20780312 0.73829579 4.2978253 4286089366
0.25857499 0.15834421 4.273241 4286352020
0.23889002 0.19655889 4.2677579 4287274156
0.27679479 0.22197846 4.2700291 4282137144
-0.2323201 -0.0065474478 4.2114806 4287532688
0.17736772 0.67409265 4.2357559 4282596149
-0.13773242 -0.203071 4.192605 4287007640
-0.12542894 -0.22285278 4.1838055 4290165698
-0.17801882 -0.14824446 4.1787744 4284506472
-0.16829504 -0.19268768 4.1768327 4289046188
-0.22824384 -0.0014356343 4.1635051 4287927706
-0.16386645 -0.18627511 4.1663675 4288190879
0.18940406 0.22871277 4.1922493 4284638562
0.15370473 0.10122709 4.1839294 4284901216
-0.22034246 -0.028177191 4.1222076 4284440163
0.037596647 0.28761667 4.1115584 4281610029
-0.091072552 -0.31171215 4.0913439 4291283920
-0.2145711 0.81315529 4.0869112 4287998394
-0.15372877 -0.22191879 4.0834446 4282992457
-0.20182136 0.77193803 4.0862293 4284374876
-0.020630756 0.33212119 4.0886059 4284441955
-0.15584457 -0.20019202 4.0790839 4281807664
-0.033614583 0.32001767 4.0822253 4281610029
-0.21163167 0.77629083 4.0669069 4288985032
-0.060630783 0.38514796 4.0703821 4284968042
-0.04825582 0.13085021 4.0670271 4282990654
-0.065144472 0.36464414 4.0608606 4282531129
-0.13438301 -0.26622844 4.045949 4291282888
-0.34837908 0.78371185 4.0379052 4287800241
-0.33642939 0.76631117 4.0371423 4286747553
-0.28099585 0.72163683 4.0371847 4284508008
-0.29330868 0.72751212 4.0349226 4288195253
-0.34561151 0.77272207 4.0323982 4284704614
-0.028327139 0.1598248 4.0386624 4283450687
-0.30859149 0.72225982 4.0263925 4288392633
-0.36616281 0.76184231 4.0234928 4284047201
-0.021101614 0.16167532 4.0305872 4289243037
-0.12085602 -0.28535196 4.0157819 4291546319
-0.38437444 0.76268911 4.0133667 4285364350
-0.092022538 0.081694774 4.009872 4289243037
-0.17800085 0.38111126 4.0062542 4287012011
0.0031534049 0.1878572 4.0008392 4289308573
-0.11006121 -0.27597466 3.9709971 4289046186
-0.11934185 -0.26148623 3.9623308 4288256670
-0.28290874 0.46678668 3.9590554 4288656323
-0.076074637 -0.33271971 3.9358618 4291349197
-0.3291361 0.48096502 3.9367871 4288393408
-0.38140523 0.63207191 3.9250755 4289314253
-0.33917946 0.46917206 3.9172678 4289117387
-0.50282288 0.70729822 3.9091525 4286813608
-0.081098929 -0.29590085 3.9031286 4289375150
0.070055477 -0.47335583 3.8901041 4290559938
0.014900413 -0.37718299 3.8627491 4291480526
-0.056167174 -0.31097379 3.8493817 4283848288
-0.33651015 0.47535688 3.8376923 4290365395
-0.56119323 0.64648008 3.838866 4286221723
-0.63339341 0.68018597 3.8357918 4286153868
0.11151141 -0.50217384 3.7901835 4292401885
0.082761452 -0.45025581 3.7880177 4290100675
0.1525275 -0.57896519 3.7722521 4290756543
-0.53042161 0.56642741 3.7787964 4286879910
-0.54884368 0.59347808 3.7745807 4289380303
-0.58936381 0.61182004 3.7634408 4284180594
0.0001092686 -0.33801347 3.7331984 4286151556
-0.78816766 0.6630131 3.7694962 4286879137
-0.54669088 0.55712426 3.7566817 4288327100
0.15411429 -0.57286626 3.7205679 4281741869
-0.5982945 0.61867994 3.7573617 4289248460
-0.80985075 0.65029365 3.7502177 4287209646
-0.59266496 0.59957814 3.7360222 4287143601
0.14324301 -0.48537764 3.6936829 4292139484
-0.82126307 0.64721733 3.7418351 4284117109
0.13819151 -0.38424471 3.6690667 4290626502
0.14459319 -0.45201766 3.6667922 4291218898
0.16076851 -0.46171352 3.6350253 4289771964
-0.67196298 0.6030612 3.6794469 4283192408
0.18488239 -0.58832675 3.6057847 4289508023
-0.68848372 0.59101564 3.6617265 4284640881
0.2431401 -0.3963038 3.5531814 4290291857
0.22830778 -0.4546192 3.55337 4282534996
0.204392 -0.54987174 3.5436075 4283979099
-0.40241331 0.56682312 3.5554686 4287404713
0.25568539 -0.41982698 3.459949 4283123010
0.2592513 -0.41757882 3.4488008 4290291600
-0.41293445 0.55130959 3.5226007 4283981924
-0.49467695 0.62735778 3.5262845 4285102218
-0.54623693 0.67853779 3.4845505 4284311670
-0.60618049 0.67281473 3.4535987 4283914841
-0.55764186 0.61802793 3.433296 4288985287
-0.57000464 0.61600751 3.4294016 4288393408
-0.64026803 0.6787259 3.4287302 4283982438
-0.70143408 0.71102673 3.3747816 4285891730
0.3097114 0.17214315 4.4958906 4288853958
-0.3254807 0.1807813 4.4663219 4282861902
-0.20363244 -0.047833543 4.1212821 4282860608
0.13714941 -0.46090016 3.6853552 4289706430
-0.47180593 0.70555604 3.5620182 4284247169
0.20107941 -0.49760747 3.5723286 4285492582
0.7379564 0.82747227 4.8654852 4285958042
0.67645979 0.83760393 4.8274426 4284574832
0.64292979 0.83459717 4.7717686 4287077807
0.58812857 0.80887306 4.7001147 4287339692
0.56515425 0.80942154 4.6885962 4284639858
0.46796367 0.81444341 4.6040568 4284310125
0.42790803 0.76455319 4.5471468 4288392895
-0.30418551 0.069675066 4.3672719 4289572788
-0.22041501 -0.023806592 4.3544173 4290823624
-0.23831894 -0.021465121 4.2642474 4290362814
-0.20913631 -0.10791177 4.1475778 4282137143
-0.054142639 0.11943471 4.073081 4289045658
-0.074170969 -0.33028769 3.9978557 4290822854
-0.21308881 0.49321064 3.9943304 4286286227
-0.49623054 0.58792466 3.8054333 4284903537
0.16095881 -0.57388508 3.68894 4284373854
0.12622525 -0.42718017 3.68132 4287073159
0.16704537 -0.58969223 3.6457727 4286019964
0.18376045 -0.55940682 3.5848227 4281413163
-0.25071639 0.25465256 5.0965662 4287990653
-0.33271122 0.28168029 5.071938 4292072662
-0.36305714 0.2670522 4.9881063 4288323239
-0.30604923 0.21513264 4.9455285 4287928223
-0.36452797 0.2445401 4.9128718 4289242793
-0.35364741 0.22208355 4.8713503 4290296511
-0.34528264 0.2091974 4.8709435 4287993756
-0.43190107 0.22777365 4.8334785 4290230201
-0.34719846 0.21083395 4.841496 4288520101
-0.33299223 0.17287004 4.7946334 4288125087
-0.33855668 0.17932396 4.7806959 4281938992
0.76338148 0.83281118 4.8843818 4284244839
0.71389151 0.81739134 4.8562675 4289378759
0.66380435 0.82307887 4.8151417 4286549660
0.6505608 0.83578652 4.810636 4284705902
0.66861439 0.81004667 4.7801685 4289839052
-0.36749652 0.1633461 4.6998835 4289835445
0.63241696 0.83615619 4.7629786 4283851110
0.62180722 0.83545327 4.7465148 4284310887
-0.21249007 0.051072098 4.6712008 4290493888
0.57735991 0.83065343 4.7146749 4284705388
0.63436949 0.79164052 4.7154965 4289248460
-0.26163942 0.062418021 4.6539059 4288783016
-0.29347065 0.08599788 4.64188 4285098353
0.55694425 0.83031112 4.6902947 4284574573
0.55532259 0.80763751 4.6891742 4284112994
0.55105615 0.83792675 4.6829867 4289505693
0.63076979 0.77670074 4.6847296 4284573544
0.51439208 0.8122068 4.659965 4284441701
0.59059 0.76823825 4.6634092 4287866550
0.52136683 0.79682469 4.6583529 4287867064
0.57372808 0.77154726 4.6597486 4284507493
-0.23259284 0.031244891 4.5902953 4291743698
-0.40591976 0.13582432 4.5727081 4292204761
-0.30754876 0.091234498 4.5656157 4287729812
-0.20124789 0.0085747503 4.5533104 4291678162
0.43390253 0.82820714 4.5745616 4283190603
0.42719546 0.84456116 4.5612326 4289505693
0.42512363 0.75395787 4.5404391 4286417818
0.39331695 0.79665053 4.532299 4283190869
0.37839016 0.78922802 4.52143 4285035914
-0.16087911 -0.039208002 4.4930906 4291677904
0.3560324 0.73885888 4.4693146 4283124553
-0.3135778 0.12936784 4.4481301 4284966507
-0.31012747 0.1227421 4.4412932 4285493109
-0.29624552 0.096763201 4.4256506 4288651687
0.29638752 0.75625885 4.4068513 4283915614
-0.3083365 0.095104478 4.3962855 4285953657
-0.31438932 0.068899475 4.3689089 4290427839
-0.28891546 0.051862087 4.3659248 4288980134
-0.24875306 0.024161413 4.3592181 4290099647
-0.27399847 0.033483539 4.3379745 4290231491
-0.26406643 0.022389751 4.3331423 4289375151
-0.040129401 -0.20402777 4.3203502 4290230975
-0.27454275 0.034092575 4.3258195 4283716955
-0.1885809 -0.064681806 4.3176346 4286217608
0.23620026 0.19892867 4.2936134 4282994514
-0.26549399 0.039688185 4.3073664 4289243565
0.22574799 0.70350689 4.2831502 4288852417
-0.2817668 0.041028801 4.2979116 4291151560
0.24230453 0.19593613 4.2786603 4289179579
0.20598407 0.70922184 4.2747874 4283057988
-0.12687568 -0.1866648 4.2722034 4290428096
0.20880605 0.67796558 4.2342653 4282859064
0.21376595 0.25483748 4.2279863 4282665290
-0.18087991 -0.14641786 4.2386837 4285362814
-0.12036909 -0.20412329 4.2312279 4288323751
-0.22294381 -0.070484854 4.2339382 4287335310
0.1903432 0.26747721 4.2078509 4283520342
-0.20292571 -0.11404446 4.2044959 4285032043
-0.24227719 0.0017610852 4.1898746 4287072139
-0.16069573 -0.19617234 4.166255 4289374892
-0.092498519 0.091713488 4.1461167 4282795585
-0.19355401 -0.13472618 4.1450634 4286808967
-0.096015498 0.095575511 4.1173792 4286808696
0.053974148 0.38522941 4.1030645 4282202420
-0.11686337 -0.25944147 4.1096606 4287664791
-0.11809301 -0.24915117 4.1046357 4290953924
-0.074246109 -0.31426662 4.0898786 4291875799
-0.12349275 -0.23303853 4.0882406 4290559422
-0.051414933 0.35803062 4.0777793 4282467138
-0.19801123 -0.045386188 4.0827527 4285229937
-0.060866397 0.35271654 4.065187 4284573026
-0.09204071 0.41827622 4.0635056 4281149218
-0.013266719 0.20034295 4.0549145 4281280291
-0.089486368 -0.28531662 4.0468183 4290296510
-0.010934469 0.21112455 4.0402246 4281280289
-0.010617248 0.22434449 4.039669 4283719264
-0.085248798 -0.31037945 4.0443635 4290954697
-0.2970627 0.8072806 4.0653119 4287931571
-0.11532305 0.4429515 4.0408673 4284835941
-0.23103818 0.7195974 4.048933 4289379531
-0.14583628 0.43015465 4.0380998 4282465850
-0.006476928 0.22314373 4.0210047 4284245604
-0.0013412182 0.23600839 4.019381 4280952614
-0.013089995 0.59204197 4.0172238 4289374365
0.0084456578 -0.40735298 4.00141 4288323754
-0.1756274 0.47807381 4.0153751 4282597953
-0.11543622 -0.27932006 4.0038543 4290822338
-0.0055163866 0.19738832 3.9923189 4289308573
0.00099225296 0.24027452 3.9905322 4283652700
-0.18966991 0.48669001 4.011694 4286023576
0.0031536426 0.2069107 3.988874 4283121983
-0.32556379 0.70278651 4.0182934 4288524736
-0.23491615 0.61938071 4.0026369 4283849048
-0.10726115 -0.28919128 3.9790642 4285559160
-0.10412303 -0.28636748 3.9696245 4290559167
-0.094539873 -0.30226365 3.9586494 4291283405
-0.28361157 0.63548791 3.9797189 4288261567
-0.28679818 0.49076262 3.9614315 4284244321
-0.27630734 0.61214125 3.954005 4283717978
-0.085308842 -0.3015506 3.9256992 4284572523
-0.33411542 0.49741918 3.9429977 4286944156
-0.36637387 0.55959833 3.893846 4284705901
0.033961166 -0.38526553 3.8237119 4290297027
0.1487024 -0.59025514 3.786921 4285954430
-0.4245567 0.61275041 3.8790529 4285035899
-0.029723898 -0.3504082 3.8110199 4285428351
-0.55993062 0.7307536 3.8937333 4285102472
0.1531418 -0.60043603 3.7713439 4291151818
0.16461813 -0.60545123 3.7509482 4291218126
-0.46557772 0.62395555 3.8492136 4289051337
0.14424773 -0.56721759 3.7411823 4284373853
-0.58751976 0.68445098 3.8607862 4285628815
0.14782555 -0.55816364 3.7198312 4281478182
0.086788669 -0.45744377 3.7185698 4290691520
-0.66657466 0.67292547 3.8266158 4285166973
-0.64846319 0.63674515 3.8088341 4286813346
-0.65718031 0.63533843 3.7980895 4287142569
-0.54282004 0.57494664 3.7692063 4285760916
0.20056194 -0.49121895 3.5995271 4282071352
-0.79040712 0.6397385 3.7657917 4286550948
0.20243306 -0.504583 3.5544829 4281873457
-0.65096617 0.6117065 3.7296615 4285826710
-0.63145745 0.59105861 3.7133646 4288525766
0.24853988 -0.47430521 3.5082862 4283719271
-0.62775356 0.5568794 3.6815429 4285694611
0.24133781 -0.4924556 3.48066 4290159757
-0.68509924 0.59628069 3.671591 4283653217
-0.66163826 0.5970102 3.665334 4287341235
-0.69801599 0.59154278 3.6552644 4284377454
-0.40172109 0.54561538 3.52777 4284638836
-0.52424788 0.63486469 3.5201716 4282994514
-0.51713258 0.59649098 3.5120416 4284575356
-0.52568251 0.6183241 3.5106614 4283982701
-0.56184632 0.61444324 3.4624379 4287537073
-0.59455973 0.64596862 3.4536321 4286155677
-0.61036551 0.69354957 3.4479487 4286023576
-0.64287686 0.68906242 3.4259646 4284178011
-0.68175262 0.70246661 3.4043272 4283980632
-0.6920979 0.71870643 3.3928373 4285101439
-0.69957322 0.70554686 3.3869779 4288458171
-0.70861959 0.7170397 3.3790326 4288524736
-0.72029412 0.72629219 3.3713219 4290890964
-0.3881011 0.75230193 4.0486307 4286682274
-0.43679249 0.74860543 4.0259023 4284969850
-0.47422504 0.59926718 3.8935087 4284970363
-0.62736893 0.68651116 3.8977401 4286024090
-0.73597485 0.65500492 3.8499277 4285101181
-0.32792753 0.18467328 4.5030828 4282925630
0.57877535 0.82377797 4.7037988 4288787139
-0.24147329 -0.011375453 4.1480231 4288979878
0.098527342 -0.47184855 3.8125823 4283189829
0.087576039 -0.45965764 3.7851982 4286612348
0.16007347 -0.43964487 3.631675 4289836986
0.21867044 -0.47611356 3.5607898 4282071610
-0.3396576 0.21147652 4.8629565 4284111456
0.74123538 0.842888 4.8715572 4285034353
0.66919267 0.82977396 4.8241806 4287668915
0.57068151 0.81954956 4.6890984 4287866549
-0.045813937 0.34365496 4.0729938 4284835940
-0.35415083 0.74957198 4.0259075 4289182667
-0.2911495 0.47683635 3.966135 4287142570
-0.41274261 0.72024882 3.9742312 4285694090
-0.33628783 0.46613622 3.927315 4288919753
0.094186231 -0.4888832 3.8335779 4290757060
0.04774157 -0.38608709 3.8216522 4290297027
-0.52668446 0.72196543 3.9110143 4284376938
0.090828285 -0.47022098 3.7920194 4286086004
0.12255525 -0.52849793 3.7810509 4289244080
-0.56892455 0.70150256 3.8789473 4285958296
0.081772834 -0.41711536 3.756547 4292073691
-0.5380941 0.65605927 3.8612931 4284904831
-0.47878316 0.62129092 3.8513501 4289051337
0.16334781 -0.5921886 3.7008088 4286416008
-0.48781773 0.53635371 3.8159952 4284509042
0.16450356 -0.55493081 3.6929245 4281938993
0.11345235 -0.38437766 3.6925848 4286875521
0.17299806 -0.52223212 3.6303906 4284309076
0.17174393 -0.57916242 3.6217062 4288256412
-0.55698007 0.55562896 3.7586727 4288392893
-0.57506019 0.56098151 3.7450624 4283850337
-0.59025919 0.58042669 3.7401476 4286155934
-0.55859667 0.67705393 3.4879203 4284246134
-0.65152645 0.67792064 3.4320819 4283521631
-0.23761955 0.25559694 5.0970736 4287399029
-0.30587924 0.27794227 5.0844917 4290823111
-0.25982624 0.26307502 5.0655479 4286545285
-0.25362721 0.25256497 5.0648332 4287596409
-0.2179355 0.22480446 5.0485964 4286545542
-0.31280896 0.25590536 5.0156317 4289638324
-0.45415923 0.29438385 4.9867239 4287335834
-0.30489442 0.23631743 4.9834819 4285361527
-0.46584129 0.28308943 4.9414949 4290164669
-0.51745194 0.28440443 4.9094567 4292862176
-0.33259839 0.22001916 4.9007354 4288191137
-0.5495916 0.29237819 4.9037266 4292664798
-0.45283425 0.27074373 4.8996992 4290492600
-0.51704013 0.27385616 4.8729749 4287203215
-0.43779677 0.24811296 4.8565974 4290887873
-0.32563099 0.19011082 4.8521323 4289177770
-0.43405464 0.24186097 4.8483024 4284110422
0.67381728 0.8245694 4.8148456 4286549916
-0.42242333 0.2352667 4.84517 4288914599
0.66113597 0.8375864 4.8103142 4284902767
-0.33574313 0.19543502 4.8237934 4283914075
0.65343249 0.83435482 4.7909079 4288063414
0.68086934 0.81219059 4.7797165 4290299087
-0.27501765 0.14161785 4.8042727 4286019197
-0.32735652 0.16902439 4.7839851 4284967023
-0.40491441 0.19779973 4.7813339 4288848549
-0.28595081 0.13111356 4.7733321 4288453792
-0.48339406 0.22895424 4.7683783 4283322197
-0.38063931 0.1866907 4.7446265 4282597440
0.57484907 0.80416745 4.6856284 4288590272
-0.28181258 0.1103419 4.7300529 4283058251
-0.37787017 0.17960891 4.732388 4282005558
0.54028976 0.8226493 4.6727648 4284442998
0.58679605 0.77964652 4.6659684 4288656322
-0.36986938 0.16441707 4.7204432 4290822337
-0.47350308 0.19913986 4.7214055 4285295989
-0.34951362 0.13795339 4.6762543 4290953923
-0.39390862 0.15897593 4.6777077 4289900724
0.42516074 0.7774123 4.5533133 4284113265
0.40624505 0.78836876 4.5346556 4286024348
0.39659566 0.8131783 4.5343509 4283981935
0.37899461 0.76971084 4.5125952 4283717730
-0.39715919 0.14222324 4.5869403 4292599520
0.35827929 0.76681083 4.5010209 4282862935
-0.3208501 0.16904849 4.5544252 4283189315
-0.18201989 -0.0091695329 4.533021 4287007116
-0.26586545 0.044518847 4.5305114 4289507509
0.33019912 0.82985038 4.4616618 4282794555
-0.17594759 -0.02087527 4.5095267 4291546318
-0.27695474 0.054551877 4.508379 4288454826
0.36522102 0.70379132 4.4215012 4283585104
-0.34794569 0.087081827 4.478909 4282003757
-0.31318292 0.15284169 4.4535146 4286677123
0.22438651 0.72337234 4.315424 4284444025
-0.32959592 0.067632891 4.3713431 4290164667
-0.26617172 0.039840348 4.3548808 4289440684
-0.15690318 -0.11464473 4.2955604 4291086024
0.21385464 0.18912023 4.2062521 4281149222
-0.10511601 -0.21014713 4.2605028 4290493631
-0.17129104 -0.1388482 4.2674165 4285757829
-0.11327512 -0.1978299 4.2520299 4289572787
0.18275678 0.17084964 4.1939507 4282071868
-0.16929458 -0.10571177 4.2577233 4289703858
0.19549038 0.31036061 4.1740375 4289243037
-0.082034335 -0.23830427 4.2222476 4283188541
-0.26002398 0.022949044 4.25561 4291085510
-0.14249633 -0.18222032 4.2187147 4287205790
-0.19420019 -0.12519827 4.1934385 4288716708
-0.10775128 -0.17873719 4.1743608 4289440945
-0.11569196 -0.2283036 4.1745596 4290428869
0.076271735 0.26178059 4.1286345 4281017376
0.12208255 0.37680051 4.1158867 4289374366
-0.0809635 0.092348263 4.1489902 4289177244
-0.086124189 0.099712417 4.1417141 4283255365
0.081650764 0.38335624 4.103785 4289045401
0.06650804 0.38570645 4.1003985 4281741097
0.070932277 0.39488158 4.0983891 4289308573
-0.098378167 -0.27240837 4.1261954 4288587181
-0.052478351 0.13952008 4.0955982 4283716429
-0.18791965 0.82633561 4.1242604 4282597693
-0.14410694 -0.22913782 4.1060266 4291151302
-0.063365534 -0.31643176 4.0874434 4292072920
-0.096525028 -0.28243026 4.091526 4289244595
-0.18113838 -0.1630007 4.1059127 4287861911
-0.21441653 0.80909795 4.103332 4283981148
-0.08627338 0.38447624 4.0563822 4282136887
-0.22487138 0.80995256 4.088594 4287932858
-0.20086955 0.75131005 4.0767412 4283321161
-0.012808268 0.18186173 4.0147185 4283319358
-0.21203075 0.74723583 4.0623779 4287736250
-0.23125941 0.76382071 4.0630012 4289576653
-0.12411878 0.4327819 4.0328679 4282400056
-0.2643061 0.76391459 4.0530376 4289380044
-0.16083513 -0.083801486 4.0240006 4282137399
-0.13148732 -0.24831152 4.0153861 4286282882
-0.19402133 0.64784831 4.0298548 4287800500
-0.28516823 0.74830753 4.0448594 4287273893
-0.17484884 -0.038284808 4.0128975 4282399800
-0.12408515 -0.23730704 3.9926794 4282597699
-0.34663817 0.76369113 4.0385604 4286682274
-0.31954992 0.72014588 4.0283155 4288392634
-0.21700647 0.45777535 3.9988098 4282400056
-0.066733405 0.31834534 3.9484141 4283584845
-0.1568021 0.34838569 3.9661701 4290693844
-0.39416558 0.7602303 4.01508 4284969850
-0.054696973 -0.35283664 3.9184649 4291941334
0.063943081 -0.46328688 3.8737206 4288520871
0.026125977 -0.39853346 3.8731105 4284308055
-0.057075661 -0.33045617 3.8955553 4289639353
-0.27456519 0.437859 3.9497294 4290233038
-0.31006184 0.47889465 3.9590299 4284970110
0.073913224 -0.46380788 3.8408427 4286939512
0.099974968 -0.49178389 3.8217094 4289244593
-0.32309103 0.44481006 3.9191811 4285956242
0.10335612 -0.48682132 3.7940598 4292270813
0.13324112 -0.5509972 3.7822382 4289375667
0.11872102 -0.5127179 3.785053 4287139217
0.09649244 -0.41871873 3.7845283 4284638562
0.1450554 -0.56404549 3.7661114 4281742127
-0.50471592 0.76349694 3.9514809 4283850081
0.14519493 -0.56738669 3.7549264 4286019193
-0.047365103 -0.3067537 3.8097317 4286480518
0.17128044 -0.59138125 3.7343812 4284110932
0.13752392 -0.49979869 3.7438254 4291349967
0.09429621 -0.44480455 3.7545984 4287730059
0.16178207 -0.58180636 3.7280548 4286873987
0.081880867 -0.40174487 3.7470732 4286283643
0.10767866 -0.4519929 3.738986 4291546832
0.17080183 -0.59195763 3.7118766 4282136883
-0.51486468 0.70468658 3.9118066 4286418593
0.11752453 -0.44715756 3.7172642 4288124043
0.12620839 -0.46834612 3.7123623 4287401349
0.14107394 -0.5809592 3.7034032 4281741870
0.13262491 -0.46269903 3.7045465 4290427834
-0.31797433 0.47540954 3.8324211 4290299860
0.15824392 -0.50192428 3.6827245 4290232517
0.15744203 -0.47351849 3.6612661 4290560708
0.17213766 -0.58103782 3.6468382 4282333745
-0.49091429 0.61796045 3.8572395 4289183180
-0.44843748 0.50007075 3.840595 4286680474
0.16023423 -0.46855575 3.6429837 4287138434
0.16536979 -0.4050422 3.6275735 4290230970
0.18294263 -0.50386798 3.6191478 4281412135
-0.5460552 0.64703614 3.8543112 4288262595
0.17708267 -0.57211459 3.6154962 4281741868
0.19859947 -0.56415552 3.5701075 4287534751
0.2028055 -0.51932764 3.5613861 4284374359
0.22782385 -0.48655081 3.5358391 4285099882
-0.5721246 0.60579079 3.787688 4289116874
0.26368243 -0.41838586 3.4916017 4283847250
0.25258538 -0.44848588 3.4868984 4284308315
-0.66655552 0.63326448 3.8013766 4286747555
-0.72649813 0.70047563 3.8208687 4284046944
0.27646238 -0.39439207 3.454849 4290291857
0.2631138 -0.40734571 3.4499917 4283386701
-0.74627465 0.6958853 3.8108423 4283717978
-0.61588252 0.6160261 3.7622149 4290693845
-0.75936127 0.68101263 3.8028185 4287208103
-0.60224491 0.59258825 3.7398453 4283455838
-0.66050273 0.60982525 3.7331955 4285761174
-0.79214257 0.67122668 3.7820072 4286747294
-0.62317753 0.56214571 3.7060807 4286616740
-0.80376422 0.63381952 3.7637072 4291021522
-0.81543219 0.6578154 3.7633197 4282862669
-0.65394968 0.58269972 3.6991103 4287012272
-0.63815051 0.55259413 3.6763005 4286089880
-0.83722889 0.64384007 3.7469962 4284182902
-0.70225495 0.58865303 3.6664205 4284509038
-0.3931185 0.55199635 3.5247176 4285430155
-0.4510892 0.54863346 3.5191851 4285431179
-0.54691243 0.7626636 3.529269 4285561994
-0.54278165 0.58945549 3.4764805 4286616226
-0.59081525 0.76298261 3.4883749 4287996336
-0.59964871 0.75373167 3.4763296 4286746268
-0.60754091 0.758995 3.4697981 4286944421
-0.60370457 0.64444041 3.45772 4286024347
-0.63247991 0.70353353 3.4478695 4283126100
-0.6724171 0.74129975 3.4246294 4285167489
-0.68508506 0.72504079 3.423475 4283586909
-0.69375622 0.70038348 3.4100204 4284243547
-0.70324707 0.70967847 3.3987291 4283651927
-0.72146231 0.71461266 3.385272 4288590272
-0.74218929 0.74271452 3.3745267 4285167745
-0.4005782 0.59639102 3.9074588 4284376681
-0.61499786 0.66126084 3.448086 4287143858
-0.24700779 0.034427203 4.3805003 4290823369
0.24159411 -0.45813948 3.5214272 4287401349
-0.54692334 0.59609216 3.4637237 4286748068
0.72453249 0.81758195 4.8560157 4289246659
-0.32824859 0.17961772 4.7802019 4281742126
0.56579661 0.83703244 4.6888099 4284179817
-0.2915605 0.063201062 4.4324741 4281741614
-0.24192776 0.026265927 4.3518867 4289112498
-0.10363267 -0.28362593 3.9888942 4284769644
-0.35637972 0.7702443 4.0342469 4284112734
0.022616116 -0.40206096 3.8962266 4284176985
-0.42546335 0.71584034 3.9669206 4286023315
-0.044131681 -0.32584363 3.8298106 4285164661
0.098478839 -0.46043125 3.7683852 4287269507
-0.035843663 -0.31027594 3.7809877 4282597439
0.15594061 -0.52539754 3.7163105 4285624954
0.15872265 -0.56594914 3.7139094 4287532173
0.16942634 -0.57699788 3.6971214 4287927189
0.12376925 -0.38968262 3.6803806 4290561481
0.16907994 -0.47434154 3.6374016 4290823623
0.1696296 -0.44030121 3.6280701 4290626245
0.18467735 -0.51285255 3.6081939 4285754720
0.21134101 -0.49825808 3.5689242 4285427046
0.22797355 -0.47699377 3.5570705 4282334781
0.20347293 -0.55575216 3.5619867 4282333493
0.24939747 -0.44340289 3.5054939 4286482050
-0.81171232 0.64241606 3.761188 4284246653
-0.28654122 0.27380159 5.0918674 4290888904
-0.31579667 0.27984461 5.0790186 4291743955
0.74626082 0.82312238 4.8765173 4289247946
-0.36157379 0.28077891 4.9980297 4289572273
-0.31626087 0.24472842 4.9874039 4289835703
-0.22755128 0.20724991 4.9697571 4288716707
0.68176609 0.8376773 4.8387413 4284771956
0.68214744 0.82458532 4.8366175 4284575870
0.67637277 0.8103264 4.8255348 4289773517
-0.27067593 0.1900938 4.9150915 4288520358
0.64767593 0.81995928 4.7608275 4286682797
-0.52828044 0.28300089 4.9112649 4292927712
0.57283151 0.83232373 4.7033253 4284509037
-0.35057986 0.22170809 4.8600459 4292072404
0.62357628 0.76757485 4.6847982 4289116616
0.59403372 0.79292691 4.6830783 4288722630
0.54699886 0.81414258 4.6780906 4284641146
-0.34429145 0.21086591 4.8313723 4289111721
-0.26630244 0.14275631 4.8136582 4289046186
0.56349087 0.77700812 4.6579671 4288919237
0.53034711 0.8084563 4.6636562 4286814377
-0.33314204 0.19166544 4.814487 4281742127
-0.27536532 0.12972246 4.7823472 4286414213
-0.21800524 0.067882448 4.6894054 4289308588
-0.26123574 0.078868322 4.6930685 4290033081
0.37211487 0.76955366 4.4978395 4283126622
0.40083691 0.72222006 4.4890261 4289774289
-0.26934785 0.071188964 4.6410446 4290427323
-0.30500817 0.10536101 4.6410093 4283847766
-0.19127437 0.0099106673 4.5584788 4286546570
-0.39717019 0.13672996 4.5653028 4280556567
-0.27167982 0.039024886 4.5052862 4291810262
-0.28270385 0.087762997 4.425611 4282860355
-0.26984674 0.045576774 4.4052587 4288386193
0.20120551 0.67193913 4.2390695 4282596924
-0.26403266 0.041321639 4.3658986 4288783273
-0.26334396 0.049124543 4.3580399 4288848547
-0.28373003 0.06060975 4.3448453 4290493631
-0.11478178 -0.17624997 4.2857366 4291414732
-0.28920564 0.071758121 4.3349547 4282071094
0.21538407 0.29576734 4.1710892 4282135338
-0.2529425 0.019950561 4.317255 4285823878
-0.1152105 -0.1871696 4.2698522 4290954440
-0.17331527 -0.11776847 4.2748289 4288322723
-0.080041215 -0.24109901 4.2412801 4291940818
0.15375584 0.30566171 4.1641674 4289308574
-0.2295626 -0.013677898 4.2868538 4283255363
0.14171751 0.2750276 4.1622629 4281741356
-0.17316401 -0.12726395 4.2615819 4285822847
-0.14731474 -0.17104897 4.2317672 4286942879
0.1096161 0.37448612 4.1175485 4289308573
0.095564388 0.37181395 4.1055427 4283846724
0.05443792 0.26894218 4.1116014 4284112217
0.022959203 0.2341134 4.1068411 4283980892
0.15440249 0.18491141 4.0596304 4281937447
-0.074268386 0.10824353 4.1356454 4289177245
-0.14905879 -0.21312001 4.1611156 4290164666
-0.0038324057 0.27655968 4.0973511 4281808439
-0.0051124771 0.31313446 4.0956116 4281017890
-0.1355444 -0.22650197 4.1395116 4291677648
-0.17458777 -0.16639249 4.1449494 4284045406
-0.023013363 0.32144314 4.0778747 4281808178
-0.069812 0.1071802 4.0947886 4283913815
-0.16477126 -0.18747312 4.1269507 4286743692
-0.20746024 0.030250195 4.1333742 4287465595
-0.098426819 -0.26255506 4.0922098 4290230458
-0.017349057 0.16904971 4.0242052 4289243038
-0.010353869 0.18540049 4.004426 4289177245
-0.092528351 0.66160494 4.0324097 4285033836
-0.14554743 -0.20484854 4.0531578 4288980393
-0.028694896 0.56210101 4.0048041 4283254594
0.068908811 -0.45981321 3.9600158 4288849838
-0.11476295 0.65351343 4.0273185 4282004271
-0.18326797 0.71513098 4.0533824 4283585102
-0.071733102 -0.31059626 3.9978299 4284308574
-0.22420791 0.74575508 4.053781 4285100658
0.051305633 -0.45015791 3.9372582 4286678411
-0.15798016 0.47455749 4.0189118 4282401089
-0.1078951 -0.2773068 3.9960201 4284309094
-0.23020916 0.68275988 4.0405331 4283652701
-0.207995 0.65780532 4.0290322 4287603378
-0.23430771 0.70343262 4.0343809 4284641151
-0.096502051 -0.28981346 3.9758058 4285032818
-0.073202834 -0.3157002 3.9615109 4286547083
-0.25475436 0.69590199 4.0271869 4288590529
-0.26674047 0.69704938 4.0248919 4288787396
-0.058465026 -0.34400716 3.9406064 4292204505
-0.087560572 -0.29822698 3.9511387 4286151558
0.081947565 -0.48791611 3.869673 4288060062
-0.20443434 0.38003513 3.9525588 4289182150
0.095444918 -0.45636106 3.8161747 4291875540
-0.045335617 -0.34288892 3.8734477 4289310132
-0.060247146 -0.31602839 3.8707883 4288323753
0.14291935 -0.55115765 3.7781241 4289112495
0.094229311 -0.44095281 3.7970023 4284901218
-0.29323936 0.46605566 3.9607 4287734708
-0.28944629 0.60981685 3.9560831 4283850079
0.13178849 -0.52906072 3.7771077 4288980907
-0.28394908 0.43674567 3.9537468 4291087573
0.15923843 -0.58019686 3.7613156 4284834663
0.097304069 -0.46020004 3.7810147 4286612604
0.17478569 -0.6056087 3.7470777 4290626247
0.15514256 -0.57148349 3.7427132 4281478696
0.15077469 -0.53337449 3.7355702 4282662714
0.17427312 -0.59320897 3.6959672 4286218114
0.16767789 -0.5196023 3.6838505 4282004784
0.1496456 -0.46674347 3.6847546 4285955448
0.16915852 -0.51006937 3.6742563 4283716952
0.13620278 -0.42031166 3.6806917 4291679449
0.12816137 -0.40704674 3.6837926 4292402656
0.13655941 -0.39908844 3.6782532 4287204999
0.16945702 -0.5024786 3.6611598 4285756010
0.15785117 -0.46284324 3.6648753 4287797141
0.14557581 -0.43517032 3.6677742 4290889673
-0.37829039 0.55742604 3.8990669 4284311400
0.17023367 -0.50837475 3.6479125 4282201909
0.15871783 -0.44544667 3.6522384 4286809727
0.17525572 -0.50052202 3.6418078 4287665817
0.18380687 -0.60318339 3.6368742 4290232005
0.18000114 -0.58183926 3.6306894 4285756279
0.18303972 -0.52314579 3.625771 4284243798
0.1855409 -0.58924377 3.6224556 4284374112
-0.34972739 0.47022378 3.8472607 4291219673
0.18879165 -0.56735879 3.5952551 4282201903
0.21076301 -0.58610457 3.5788221 4288849580
0.21543264 -0.5060963 3.549022 4281939250
0.23906802 -0.47589105 3.5304885 4284178267
0.25893643 -0.48296511 3.5050912 4285958032
0.27329099 -0.41875514 3.486959 4283846988
0.29781926 -0.39483649 3.44436 4290291858
0.27636099 -0.43272224 3.4446161 4290226064
-0.6031723 0.6824584 3.8598974 4285629327
-0.48393205 0.51348221 3.7998266 4287405997
-0.64904624 0.74138337 3.8674719 4284113508
-0.50562882 0.50715786 3.7665341 4291745501
-0.56268072 0.60840529 3.7828054 4289379531
-0.60015327 0.61794233 3.7686808 4289379788
-0.64306331 0.61406517 3.7417285 4285761176
-0.61237603 0.56498057 3.7135496 4286089883
-0.64085448 0.5611704 3.6811094 4290562259
-0.67337388 0.57541263 3.6719887 4290825174
-0.55571193 0.78454375 3.5259953 4286614426
-0.5545404 0.76903588 3.5230579 4285233807
-0.60407299 0.76879871 3.469846 4283522413
-0.62184602 0.75795937 3.4497645 4282597692
-0.66758311 0.76470369 3.4239042 4285889921
-0.66437101 0.75440514 3.4216952 4282993999
-0.6755662 0.72843963 3.4172564 4283389271
-0.68154436 0.75031579 3.4164176 4285430661
-0.74182916 0.76146966 3.3894055 4285431435
-0.73636305 0.74917334 3.3577309 4284311403
