# .PCD v0.7 - Point Cloud Data file format
VERSION 0.7
FIELDS x y z normal_x normal_y normal_z curvature
SIZE 4 4 4 4 4 4 4
TYPE F F F F F F F
COUNT 1 1 1 1 1 1 1
WIDTH 601
HEIGHT 1
VIEWPOINT 0 0 0 1 0 0 0
POINTS 601
DATA ascii
-0.92682379 -0.44788522 2.9797363 -0.89543802 0.27042025 -0.35364342 0.18946362
-0.92698282 -0.40892878 2.9763188 0.053577885 -0.41537526 -0.90807092 0.12302145
-0.94941354 -0.49175721 3.0205033 0.95963883 0.2743682 0.061768752 0.13376848
-0.92717242 -0.44923413 2.9907074 0.70458609 -0.70946223 -0.014888429 0.23295066
-0.95164496 -0.09155032 2.9811773 0.17868468 0.95950574 -0.21776269 0.21511349
-0.97832346 0.052410264 2.9998786 0.157138 0.98732042 0.022496535 0.026233617
-0.99169546 0.065151267 3.0144928 -0.14979906 -0.98725903 -0.053664461 0.044652391
-0.94723171 -0.51025915 3.027674 0.59443778 0.79783505 -0.10051419 0.12870233
-0.92903858 -0.46255013 3.0070565 0.95348936 -0.18685123 0.23652619 0.20315398
-0.92404312 -0.42983612 2.9987435 0.72877795 -0.68461996 -0.013350942 0.24026325
-0.94122779 -0.078186944 2.9849703 0.63129437 -0.0054393802 -0.77552426 0.18075772
-0.89879417 -0.35740024 2.9654341 0.61160719 0.41307795 -0.67476153 0.24737239
-0.94209105 -0.5202617 3.034734 -0.22189243 0.97506911 0.0019903805 0.11312593
-0.94196743 -0.48591033 3.0330799 0.91786551 0.18771172 -0.34969583 0.13178807
-0.92627734 -0.4407559 3.0115538 0.44537053 -0.86655945 -0.22521052 0.25230956
-0.9235121 0.24914068 2.9340832 0.067696065 -0.99506265 0.072577499 0.12591721
-0.9095453 -0.28335339 2.990027 0.55228162 -0.67845845 -0.4844369 0.18028706
-0.92574024 0.28740636 2.9473979 0.3684983 0.92957902 -0.0095869265 0.12006477
-0.92810142 -0.17835759 3.0040607 -0.53980637 -0.73215204 -0.4154065 0.2694276
-0.94143629 0.033907481 2.9982829 -0.31785786 -0.93992662 -0.12451617 0.10464413
-0.90799594 -0.30600831 2.9974399 0.5168789 -0.5489158 -0.65690762 0.18309209
-0.90770811 -0.31698945 3.0005097 0.41478559 -0.18962446 -0.88994122 0.15323503
-0.90568179 -0.36773404 3.0044601 -0.69022548 0.58590513 -0.42462233 0.17300251
-1.1576686 0.23852167 3.2462096 -0.39858517 0.37895849 -0.83517683 0.097910777
-0.93498999 -0.50648785 3.0638065 0.90419388 0.060311429 -0.4228428 0.15746167
-0.91868705 -0.46942234 3.0424929 0.26707003 -0.9390865 -0.21631043 0.22007279
-0.91602933 -0.14175077 3.004137 -0.74365783 -0.071514063 -0.66472459 0.10005306
-0.90525651 -0.40420395 3.0255716 -0.94302785 0.053306196 -0.32841587 0.1806134
-0.90570432 -0.43946782 3.0326123 0.73852414 0.12906851 -0.66175777 0.25030273
-0.9189592 0.25677073 2.9733329 0.50148565 0.8352617 -0.22549953 0.11995171
-0.92085308 0.28969294 2.9726889 0.21526533 0.96160787 -0.17020914 0.15484464
-0.91359389 -0.11584544 3.0094366 -0.89372581 -0.25658545 -0.36799186 0.14983284
-0.9216547 0.041321289 3.0021806 -0.090259023 0.88930357 -0.44832179 0.21602409
-0.91368246 -0.13309616 3.0157747 -0.92264032 -0.085005395 -0.37617663 0.12241135
-0.91896427 0.2776542 2.976789 -0.027879944 0.9765209 -0.21361122 0.16183978
-1.0791593 0.17539379 3.1839547 -0.021151453 0.03668198 -0.99910313 0.10059186
-1.0814251 0.23437783 3.1811981 -0.8531999 -0.19520375 -0.48367906 0.26776081
-0.91126293 -0.11924509 3.0180197 -0.92910582 -0.02645446 -0.36886656 0.20904249
-0.89673185 -0.43447196 3.0361929 0.98294342 -0.17495646 -0.056677513 0.18811576
-0.91705739 0.26140621 2.9845235 0.62483186 0.76180732 -0.17098144 0.11699623
-0.91158491 -0.06555707 3.0145175 -0.28337318 0.911457 -0.29823783 0.17108303
-0.91097003 -0.080240391 3.0166109 -0.90447831 0.12112229 -0.40896016 0.18458961
-0.92086285 -0.49797091 3.0753577 0.62953448 -0.77674353 -0.018866152 0.12515894
-0.91501999 0.022504611 3.0102825 -0.91278905 0.26039532 -0.31465939 0.17053606
-0.91844034 0.29209176 2.9867022 0.2507619 0.95989639 -0.12536894 0.15689127
-0.8983413 -0.36934838 3.0397377 -0.67601025 0.2593433 -0.68974715 0.23570898
-0.9080351 -0.21069744 3.0349298 -0.40278858 -0.81920713 -0.40824148 0.13515379
-0.91308409 0.053687979 3.0120943 -0.3438884 0.85376054 -0.39093941 0.22080311
-0.90969282 0.036185734 3.0113719 -0.74764311 0.50829571 -0.42739356 0.20112404
-0.92418802 -0.0037655986 3.034318 0.36558795 -0.50999957 -0.77861804 0.1145239
-0.91194654 -0.20392627 3.0448768 0.21554123 0.97604746 0.02955341 0.13664626
-0.8948434 -0.33240327 3.0393269 -0.88017815 0.21472333 -0.4232969 0.204156
-0.91220224 -0.15148024 3.0415909 -0.039070792 -0.52595747 -0.84961289 0.19419016
-0.91539633 0.28240308 2.9977438 0.87516183 0.40232235 -0.26875377 0.15058289
-0.89102876 -0.27326629 3.0319164 0.69431949 0.69634843 0.18171223 0.12226223
-0.89742935 -0.36142963 3.052222 -0.44724837 -0.14885047 -0.88193673 0.17182776
-0.90680277 -0.39255467 3.0675931 -0.21396483 0.46383384 -0.85969603 0.17709289
-0.91344178 0.28322381 3.0095727 0.90917736 0.14595319 -0.38999251 0.15552141
-0.89054888 -0.27008519 3.0454843 -0.80617183 -0.48802507 -0.33454213 0.069811456
-0.89861149 -0.36991411 3.0712967 -0.63945055 0.31574425 -0.7010054 0.15291592
-0.91598672 -0.47275189 3.1046443 -0.6771366 0.61930144 -0.39743152 0.17943124
-0.89056414 -0.34227091 3.0593612 -0.85190797 0.408618 -0.32754263 0.073027588
-0.8858822 -0.28853455 3.0483308 -0.8813737 -0.22825113 -0.41362041 0.091877282
-0.90531206 -0.19954628 3.0647786 -0.78968239 0.34331816 -0.50846267 0.12510312
-0.90514916 0.050734255 3.037292 -0.82975423 0.34806424 -0.43630174 0.16402146
-0.91267592 0.26051593 3.0244915 -0.12448756 -0.87233305 -0.47279808 0.19463582
-0.9140861 -0.48696354 3.1128628 -0.67269951 0.60451752 -0.42665431 0.16003987
-0.91080695 0.2883009 3.0215929 0.77112949 0.63658351 -0.010983747 0.1913009
-0.9041459 -0.18320575 3.0679536 -0.88262635 -0.078022495 -0.4635551 0.13849145
-0.88640171 -0.30303618 3.0625947 -0.81789529 -0.22585678 -0.52918428 0.087360546
-0.90163159 -0.21415928 3.0755215 -0.84020066 -0.33653653 -0.42521277 0.14418375
-0.90282387 -0.19269264 3.0754018 -0.78968245 0.34331819 -0.50846273 0.1251031
-0.88720423 -0.052991621 3.0457239 0.088491365 -0.98448348 -0.1515307 0.18758404
-0.88521641 -0.31574374 3.0736053 -0.85093027 -0.15701927 -0.50126094 0.084756203
-0.9065429 0.27739075 3.0340984 0.97868985 0.18970688 0.078596435 0.19909538
-0.90863138 0.28976357 3.0356739 -0.90005714 -0.19879411 -0.38778621 0.11324072
-0.90102643 -0.085258357 3.0698528 0.078414634 -0.92871422 -0.36240986 0.25159088
-0.88463289 -0.35100168 3.0808759 -0.86862648 0.36370653 -0.33646062 0.072046489
-0.92515546 -0.41893971 3.1404386 -0.90126663 -0.075661927 -0.42660719 0.048963133
-0.89380634 -0.069330834 3.0645967 0.17718448 -0.88022047 -0.44024724 0.25713214
-0.88567412 -0.043408286 3.0558627 -0.20822741 -0.92987114 -0.3032839 0.12779255
-0.89577144 -0.074084267 3.0773649 -0.77171659 -0.41455954 -0.48227996 0.20574647
-0.89329761 -0.33152252 3.1044939 -0.93187475 0.13649081 -0.33612448 0.12242464
-0.88832659 -0.034994926 3.0706322 -0.84389812 0.39958811 -0.35800204 0.22083494
-0.91017407 -0.31017923 3.1512644 0.98729396 0.13231841 -0.087991297 0.12756938
-0.90099972 0.2873078 3.0708292 0.65755635 0.21761787 -0.72129202 0.084140539
-0.98362708 0.22819684 3.1868241 -0.91894907 0.062057525 -0.38946295 0.057914931
-0.98561674 0.23863742 3.1928947 -0.37786415 -0.059204053 -0.92396617 0.16753149
-0.97576934 0.17979252 3.1881237 -0.85645652 -0.20389992 -0.47424367 0.055970415
-0.90086299 0.29935735 3.0785742 0.60688823 0.48607275 -0.62882429 0.11252016
-0.9787479 0.19185147 3.1983664 -0.91228336 -0.03306723 -0.40822253 0.074866511
-0.97575229 0.18193319 3.2034473 -0.88908744 -0.089524433 -0.44889751 0.069662645
-0.97112989 0.16709621 3.2032821 -0.83478737 -0.23635933 -0.49725679 0.05340996
-0.98267305 0.19788103 3.2156379 -0.91224051 -0.03361465 -0.40827349 0.068704024
-0.89639956 0.29802322 3.0998836 0.67072695 0.60312003 -0.43170777 0.14917657
-0.96170193 0.13658218 3.2121749 -0.79813337 -0.40223771 -0.44853997 0.0067270878
-0.89370251 0.29043844 3.1073682 0.49639717 0.60829628 -0.61932665 0.10239457
-0.98649329 0.23235023 3.2362869 -0.90737891 -0.24261938 -0.34321907 0.069305137
-0.89547342 0.30431834 3.1210303 0.47194594 0.87547475 -0.10397611 0.083901532
-0.89009541 0.29280987 3.1238313 0.56488192 0.82514942 0.0060703498 0.096879765
-0.88693458 0.28542477 3.1310277 0.94569868 0.0082198242 -0.32494056 0.22512434
-0.94220507 0.084036082 3.2313895 -0.77947092 -0.33430114 -0.52978092 0.011422956
-0.88557309 0.26284459 3.135684 -0.52232742 -0.73423123 -0.43368024 0.15730402
-0.92718858 0.026252259 3.2237105 -0.84081405 -0.13910066 -0.52314687 0.018904008
-0.9264636 0.038255606 3.2213433 -0.80507869 -0.20679516 -0.55595338 0.015658012
-0.88594151 0.30272466 3.1410413 -0.00095325196 -0.99634302 0.085437559 0.14561211
-0.92419124 -0.13079444 3.2442214 0.97935766 -0.040226802 0.1980917 0.098787561
-0.92033166 0.021333765 3.2226367 -0.84081405 -0.13910067 -0.52314693 0.018904008
-0.93080151 -0.034378383 3.2459469 -0.87448168 -0.082994461 -0.47790554 0.04158758
-0.88312441 0.27286363 3.1456854 -0.89184487 -0.27953771 -0.35562822 0.13137467
-0.93126154 0.061020546 3.2362609 -0.78455406 -0.28020048 -0.55313891 0.015294808
-0.9286707 -0.023010956 3.2435267 -0.926943 -0.0020009934 -0.37519681 0.050672188
-0.92399234 -0.0084659588 3.2356522 -0.8652578 -0.069906563 -0.4964292 0.027328998
-0.88220334 0.26209375 3.1489537 -0.48683438 -0.8591761 -0.15750779 0.14652368
-0.93170267 -0.06411694 3.2545717 -0.85317349 -0.25906953 -0.45274493 0.054320496
-0.93078649 -0.050943673 3.2526994 -0.88054413 -0.17227328 -0.44154716 0.046706472
-0.9123615 0.012423326 3.2288465 -0.85271418 -0.14634629 -0.50145918 0.023036968
-0.88214844 0.29552898 3.1556137 0.55710769 -0.82646531 0.081154443 0.18561606
-0.89136058 0.28599986 3.171267 0.79830045 0.57401562 -0.18227041 0.18440981
-0.92736763 -0.022705503 3.2576823 -0.94032282 0.00019631129 -0.34028354 0.054374304
-0.91522956 0.024500953 3.2361155 -0.84081417 -0.13910067 -0.52314687 0.018904006
-0.93074578 -0.052891079 3.2731082 -0.94058448 -0.15228674 -0.30349544 0.05536323
-0.92923105 -0.078066491 3.2746997 -0.86402202 -0.29101741 -0.41082215 0.056946781
-0.87833279 0.26314601 3.1665149 -0.017812785 -0.9960714 -0.086743355 0.20297714
-0.87578797 0.27242696 3.1724663 0.40625098 -0.90639281 -0.11581134 0.21215214
-0.92618388 -0.014983796 3.2817049 -0.95350534 0.063166186 -0.29468223 0.036822997
-0.94422305 -0.11646918 3.3201883 -0.84526175 -0.26737136 -0.46265012 0.071178585
-0.8721261 0.27327257 3.1911933 -0.16920923 0.69000083 -0.7037521 0.22435193
-0.87239546 0.29531682 3.1940477 -0.62720519 -0.41463584 -0.65931076 0.2440784
-1.1318134 0.060208116 2.6170275 -0.49886662 -0.022329791 -0.86639106 0.14377905
-1.1176854 0.030700948 2.6226146 -0.74483615 -0.2891809 -0.60132647 0.088162765
-1.1162896 0.064553805 2.6184549 -0.52581012 0.20926015 -0.82445979 0.14646241
-1.1224872 0.0055635683 2.6303227 -0.68417221 -0.37387389 -0.6262002 0.061501171
-1.1154197 0.05307566 2.619915 -0.51579589 0.03862711 -0.85584027 0.16042089
-1.085829 0.11932708 2.5999737 0.11396664 -0.42753509 -0.89678609 0.16582157
-1.1021649 0.0319301 2.6227102 -0.46836394 -0.10247699 -0.87757254 0.16388464
-1.1089056 0.014068411 2.6316133 -0.49614716 -0.45843947 -0.73734069 0.1236017
-1.1101357 0.00033524883 2.6352589 -0.50339711 -0.6170752 -0.6048218 0.11222778
-1.0806167 0.106365 2.6039224 -0.040193006 0.10815617 -0.99332106 0.15869781
-1.0747374 0.12554383 2.6020525 -0.1093543 -0.76576132 -0.63375956 0.065167025
-1.1047225 -0.018206514 2.6445622 -0.28125891 -0.76478523 -0.57965237 0.11729725
-1.0654114 0.055178531 2.6049304 0.21926896 0.40917763 -0.88571703 0.15466313
-1.0406466 0.042164315 2.6095915 -0.071074679 0.39406341 -0.91633087 0.14107521
-1.0533766 -0.016095737 2.6304927 -0.32258433 -0.59538567 -0.73583639 0.15442455
-1.0448203 -0.0029204595 2.6246586 0.00059881306 -0.25972059 -0.96568364 0.14434002
-1.0373298 0.019496905 2.6171303 0.44279578 -0.01068276 -0.89655888 0.21405365
-1.0339813 0.12841313 2.6122637 0.26035228 -0.15195952 -0.95348042 0.20454249
-1.0268596 0.08339458 2.6141627 -0.48002368 -0.010513515 -0.8771925 0.17183852
-1.0239106 0.12243327 2.6121826 0.24415053 -0.43945703 -0.8644467 0.1560687
-1.0342997 -0.037910413 2.6498344 0.43773365 -0.56184638 -0.70193875 0.1565358
-1.0140729 0.041778743 2.6240485 0.33332279 -0.19661961 -0.92208278 0.14738715
-1.0034597 0.099590741 2.6108136 0.043810651 -0.2309832 -0.9719708 0.095450304
-1.0370222 -0.066798508 2.6713021 0.41016281 -0.794765 -0.44734237 0.16464779
-1.0078845 0.0071495227 2.6436126 0.66905606 -0.30797961 -0.67639673 0.10621718
-0.99471217 0.019226903 2.6486907 0.56176353 -0.19879429 -0.80305827 0.11250949
-1.005592 -0.015842199 2.6625905 0.91770667 -0.35668546 -0.17489977 0.22506195
-1.0177429 -0.064089119 2.6837533 0.70179099 -0.32199222 -0.63546091 0.1962551
-1.0157437 0.21705729 2.6624413 -0.51268566 0.43506047 -0.74018633 0.13503078
-0.99957031 -0.018778706 2.6762962 -0.19892569 -0.91014558 -0.36340556 0.19041276
-0.95153642 0.24861841 2.6071723 0.13084553 -0.98554748 0.10759003 0.07525941
-0.97764361 0.16116557 2.6478651 0.71927398 0.41610321 -0.55633008 0.075751692
-0.96004182 0.1109397 2.6374576 0.68362057 0.13606888 -0.71704125 0.14225648
-0.99179786 4.4197809e-06 2.6868696 -0.50469297 -0.70232189 -0.50202495 0.14031503
-0.99884361 -0.028627165 2.7016513 -0.47421017 -0.51884973 -0.71128029 0.20772433
-1.0150752 -0.12111674 2.7270288 0.47896424 -0.56775647 -0.66951162 0.15219149
-0.99609852 -0.048061628 2.7108281 -0.66156727 -0.59979004 -0.4500896 0.22553815
-0.94842207 0.25227696 2.6395957 0.15304841 -0.98769009 0.032317907 0.18719631
-0.94946647 0.26972818 2.6465619 0.49792311 0.83255047 -0.24275976 0.20824759
-0.94884461 0.2846061 2.6510885 0.33761942 0.92603958 -0.16871238 0.14647062
-0.99251914 -0.07830207 2.7334449 0.95710707 0.089613929 0.27552766 0.15694366
-1.0666478 -0.24289943 2.8257105 0.34421238 -0.88572568 -0.31146073 0.22605193
-0.99464995 -0.096734211 2.7408743 0.93620503 -0.24276929 -0.25413221 0.17431031
-1.0698694 -0.22110444 2.8303261 0.39612809 -0.90343422 -0.16397904 0.20539989
-0.94708818 0.25519532 2.664397 -0.54733229 -0.79863089 -0.25023216 0.14440757
-0.93490487 0.05247137 2.6730099 0.50884432 -0.8506828 0.13197067 0.15534146
-0.9909789 -0.067259364 2.7418919 -0.64599055 -0.66730452 -0.37067625 0.19253689
-1.0560182 -0.24314205 2.8292994 -0.12994701 -0.78943342 -0.59992391 0.23118411
-0.93173659 0.063311949 2.6781766 -0.8410424 -0.26121557 -0.47372377 0.17734386
-0.99210614 -0.070460469 2.7691283 0.50394851 -0.86372358 0.0041724783 0.22493605
-0.93738043 0.011692077 2.7070761 0.71569753 -0.68444926 -0.13894716 0.18006431
-0.94353533 0.2729907 2.6890471 -0.11284328 0.92184538 -0.37076607 0.12900746
-1.020252 -0.20704474 2.8192871 0.02698675 0.34740755 -0.93732589 0.18235959
-0.98899573 -0.13071537 2.7807825 0.97992438 0.18105875 -0.08346241 0.15354614
-0.92577404 0.041139867 2.6989501 -0.68198979 -0.59178251 -0.42974791 0.187207
-0.92425269 0.053247724 2.6972606 -0.55065358 -0.77928907 -0.29914761 0.10712223
-0.9411822 0.2429505 2.6991484 0.85570353 0.4728435 -0.21021527 0.2252616
-1.0530478 -0.33554107 2.8759532 -0.49968877 -0.449276 -0.74058235 0.092791617
-1.0779836 -0.44860759 2.9160771 -0.10514799 -0.73489672 -0.66997814 0.15068524
-0.94229215 0.27760747 2.7034011 -0.33362344 -0.93705279 -0.10309011 0.1683647
-1.0109652 -0.19380715 2.8220172 -0.71477914 0.54065186 -0.44360602 0.21716444
-0.98417628 -0.11640479 2.7876637 0.98764002 0.15163863 -0.039659411 0.15889135
-1.0125396 -0.22172472 2.8313 0.5907082 0.17858668 -0.78687406 0.21250312
-0.94388288 0.27590862 2.7138383 0.40842393 0.90996319 -0.071811184 0.16782674
-1.0466502 -0.33978745 2.8846648 -0.38797843 -0.41870236 -0.82107317 0.16062465
-0.9953891 -0.17850848 2.8159287 0.97788841 -0.18027131 -0.10600244 0.22933424
-0.98495376 -0.15208285 2.8068488 0.89487076 -0.264146 -0.35976842 0.16036867
-0.92026252 0.033098008 2.720433 0.68805039 -0.70842069 -0.15724757 0.15225828
-1.0151099 -0.26692089 2.8504672 0.52916747 0.089380302 -0.84379673 0.22959387
-1.05442 -0.44264802 2.9108589 0.051286705 -0.22535655 -0.97292554 0.15156372
-0.98008895 -0.05785365 2.7947292 0.78063053 -0.56131774 -0.27484256 0.18193692
-0.90548164 0.097616978 2.7006297 0.99971837 -0.022396769 -0.0078558018 0.23702885
-1.0431541 -0.35736775 2.8936679 -0.60504138 -0.40111586 -0.68777257 0.098294638
-0.97980404 -0.098714598 2.8025668 0.82039517 0.41382265 -0.39459154 0.14688738
-1.0345976 -0.38857678 2.8978827 -0.43370137 -0.44090119 -0.78581756 0.08051426
-0.98895371 -0.19695872 2.8317733 0.3182376 -0.23151629 -0.91930681 0.22840384
-1.0417477 -0.45465982 2.9146104 -0.050069384 -0.6334796 -0.7721377 0.10715202
-0.93950146 0.26964849 2.7346578 -0.31501913 -0.90348345 -0.29065546 0.17379737
-1.0317669 -0.34348607 2.8946581 -0.38520238 -0.04522169 -0.92172348 0.19246998
-0.97592133 -0.14162229 2.8156304 0.74766338 -0.38500917 -0.54107988 0.15271261
-0.97216105 -0.11442783 2.8103933 0.84686321 0.12911341 -0.51589954 0.19309175
-0.98595536 -0.21353877 2.8363314 0.5704363 -0.031980269 -0.82071894 0.24085988
-1.0243615 -0.37852225 2.8956943 -0.19669655 -0.51292479 -0.83559477 0.1395344
-0.9836576 -0.17054623 2.8316109 0.4340283 -0.056636237 -0.89911723 0.18602197
-0.98497772 -0.18181732 2.8354144 0.58496898 0.44730499 -0.67655712 0.23791474
-0.99965197 -0.28726426 2.8688996 0.56903273 -0.52926517 -0.62934893 0.12183846
-0.99223024 -0.2586385 2.8603296 0.98826933 -0.06256745 0.13931629 0.18683402
-0.99086845 -0.27540544 2.8619506 0.64922678 -0.21777083 -0.72875267 0.099903554
-0.96636599 -0.11142082 2.8200595 0.629085 -0.34587568 -0.69614804 0.17749839
-0.97025627 -0.038043376 2.8168776 -0.84375268 -0.31810209 -0.43231058 0.22432138
-0.99264824 -0.23580649 2.8642957 0.97282362 -0.17636561 -0.15003076 0.25208685
-0.99662864 -0.30210268 2.880039 0.60640895 -0.52123612 -0.60048401 0.107618
-1.0125492 -0.44368842 2.9126823 0.26512122 -0.42004508 -0.86791295 0.18215786
-0.963458 -0.1199201 2.830034 0.88699943 0.25138402 -0.38734758 0.26350632
-0.93625015 0.24289939 2.763922 -0.69196886 -0.64846909 -0.31728056 0.19935788
-1.0126247 -0.42443809 2.9152286 0.26533014 -0.45464474 -0.85023421 0.1550173
-0.9880209 -0.31469271 2.8815293 0.65628368 -0.31203008 -0.68697083 0.17953551
-1.0063725 -0.46664253 2.9193025 0.29764864 -0.3280454 -0.89654422 0.21804173
-0.90274954 0.041193575 2.7566974 0.63212216 -0.74874592 0.19950196 0.18350558
-0.96212423 -0.1356504 2.8410368 0.61871147 -0.23009031 -0.75116879 0.20596133
-0.97921419 -0.34744695 2.8829308 -0.056690153 -0.10221218 -0.99314594 0.22413096
-0.97974056 -0.27512854 2.8776846 0.60370719 -0.23175755 -0.76277518 0.096938722
-0.96485806 -0.06803529 2.8404472 0.94249427 0.28144649 -0.18025635 0.1812693
-0.93149567 0.26358026 2.7752595 0.7822566 -0.47735402 -0.40025961 0.18988143
-0.9579832 -0.10672741 2.8429098 -0.7098332 -0.52865148 -0.46547228 0.2368513
-0.99423856 -0.45904326 2.9184771 0.03417233 -0.5483712 -0.83553654 0.11973912
-0.97610265 -0.31001297 2.8851895 0.68657547 -0.34203324 -0.64158189 0.20230132
-0.95670271 -0.17062242 2.8514276 0.68898076 -0.37843338 -0.61813718 0.12629633
-0.99669772 -0.47744927 2.930439 -0.024209 -0.73398107 -0.67873836 0.12961344
-0.93187684 0.28933057 2.7820339 0.92612344 -0.37690747 -0.015366836 0.19849254
-0.97596174 -0.40831265 2.9041836 -0.090201728 -0.63512701 -0.76712281 0.17041017
-0.97045326 -0.38253421 2.8956518 0.041068126 -0.096361116 -0.99449891 0.16528305
-1.0373868 -0.53634441 2.9874907 -0.05636977 -0.74395901 -0.66584337 0.19321671
-0.9664427 -0.355398 2.8948455 -0.37900698 0.12988147 -0.9162339 0.22665071
-0.91755092 0.21786772 2.7838328 0.68535191 -0.39823717 -0.60967207 0.1256569
-1.014941 -0.52499896 2.9694219 0.10588466 -0.69974953 -0.70649773 0.07647074
-0.9687413 -0.21309897 2.8961639 0.5174365 -0.074158221 -0.85250223 0.25524631
-0.91064465 0.22890294 2.7870407 0.82707959 -0.2361526 -0.51006985 0.1329705
-0.96166712 -0.28482029 2.897969 0.69865209 -0.41348493 -0.58387971 0.11654171
-0.95214891 -0.12066518 2.8711777 0.65194714 0.7168839 -0.24706757 0.16115877
-0.94625145 -0.14948855 2.8712199 0.92698872 -0.27900118 -0.25069934 0.16310355
-0.95256954 -0.16654532 2.8944628 -0.8382442 0.4636471 -0.28701603 0.099378377
-0.99209714 -0.51367068 2.9771259 0.16136895 -0.62958276 -0.75999057 0.10838626
-0.95972466 -0.4497425 2.9370468 -0.32088652 0.25114799 -0.91321218 0.23756132
-0.95224905 -0.29406878 2.9130123 0.76906508 -0.3341375 -0.54487705 0.20485859
-0.93938696 -0.37257367 2.9073672 0.74488348 -0.65938908 0.1017581 0.23119402
-0.94183755 -0.38973445 2.912117 0.59995455 -0.79868412 0.046456713 0.21105054
-0.94608748 -0.41333491 2.9204092 -0.8808338 0.12695482 -0.45608586 0.24146774
-0.94057715 -0.12402666 2.8879533 0.44455302 -0.89262617 0.074774548 0.23971835
-0.95101696 -0.33334956 2.9221215 0.18562147 0.32089639 -0.92874652 0.14062902
-0.90364611 0.22097014 2.8125229 0.82473999 0.4666014 -0.31951085 0.1040092
-0.94844669 -0.15156388 2.9035881 0.91788846 -0.36480764 -0.15619276 0.16505682
-0.98474431 -0.53276438 2.9855611 0.2803396 -0.83810347 -0.46796602 0.080381855
-0.9464696 -0.19365244 2.907099 -0.86225021 0.28804794 -0.41659689 0.12168715
-0.93195271 -0.38294977 2.9134514 -0.89989722 0.21630138 -0.3786802 0.16536397
-0.92265511 0.25772956 2.8360941 0.93046051 0.31200832 -0.19207844 0.098938949
-0.94006145 -0.45920804 2.9323647 -0.30780387 -0.8545419 -0.41834769 0.19248351
-0.97358268 -0.50246871 2.9757123 0.12223338 -0.42794546 -0.89550078 0.18226609
-0.93061638 -0.35299397 2.912545 0.30491307 0.11464689 -0.94545448 0.24895078
-0.9396683 -0.42779979 2.9320126 -0.81596071 -0.058482919 -0.57514167 0.16679823
-0.92686218 -0.36168665 2.9209027 -0.81872016 -0.28723571 -0.49718505 0.16502292
-0.96907711 -0.52058679 2.987994 0.32588944 -0.86631912 -0.37853295 0.14221574
-0.92414141 -0.36619607 2.9310963 -0.094026558 -0.79026645 -0.60550636 0.16373578
-0.9171055 0.24211581 2.8613498 -0.85027349 0.24519418 -0.46574122 0.10745002
-0.92526746 -0.44938219 2.9456167 0.13577557 0.99041873 0.025212031 0.21684934
-0.9196611 0.29233524 2.8615882 0.87023342 0.46757665 -0.1551318 0.13847812
-0.95558482 -0.512959 2.9965758 -0.31851742 0.9352048 -0.15472105 0.15853827
-0.92109275 -0.46051508 2.9544754 -0.53755432 0.82896787 -0.15442692 0.098802835
-0.91599458 0.27910411 2.8736401 0.70453721 0.60356462 -0.37327901 0.14752083
-0.94817162 -0.50084656 2.9952285 -0.077650778 -0.95441663 -0.28820002 0.20956412
-0.91902834 -0.25564113 2.943187 0.72053969 -0.060798008 -0.69074315 0.13055068
-0.91224891 -0.3897475 2.9517491 0.10418297 -0.91292101 -0.39461523 0.1735168
-0.92503393 -0.15191138 2.9449215 0.81791872 -0.022225404 -0.57490432 0.10365919
-0.91135144 -0.40483752 2.9576943 0.24005209 -0.64586139 -0.72473311 0.18037257
-0.9389652 -0.50096071 3.0048232 0.36371666 0.92837906 0.076305792 0.14546566
-0.91610962 -0.24790545 2.9558656 0.8687017 0.28761083 -0.40328336 0.14491981
-0.90739852 -0.4396379 2.9778514 0.73953867 -0.49964806 -0.45103702 0.22840776
-0.92172223 -0.090095557 2.9624448 -0.60846329 -0.75410032 -0.24719466 0.161283
-0.92363566 -0.076829337 2.9640951 0.69906074 -0.18305309 -0.69123489 0.20214078
-0.88335234 -0.35374889 2.946841 0.85495543 -0.13553424 -0.5006811 0.096759535
-0.92949039 -0.020082984 2.9742246 0.31660593 0.088752963 -0.9443959 0.12416396
-0.92333508 -0.51770234 3.0271003 -0.21656515 0.97526634 -0.044216212 0.11388932
-0.90986568 -0.091085017 2.9672592 0.77204877 0.50685406 -0.38345748 0.11593846
-0.89348775 -0.28023401 2.9705901 0.63481808 -0.44230965 -0.63353622 0.10143235
-0.90745085 0.29468864 2.9253545 0.013470193 -0.99977922 0.016126091 0.12482101
-0.92335081 0.03420477 2.9766936 0.26347986 -0.50385284 -0.82262427 0.23614845
-0.89279622 -0.30313671 2.9789853 0.53039497 -0.7547521 -0.38604459 0.18171774
-0.90779507 -0.45938203 3.0142102 0.75395113 -0.57856482 -0.31115979 0.18129787
-0.88947505 -0.40005535 3.00611 -0.51440644 0.21700878 -0.82963437 0.19958124
-0.8896935 -0.43506864 3.0128198 0.86887014 -0.42171946 -0.25926298 0.1814876
-0.90995866 -0.48837271 3.0451751 -0.74018174 0.65726757 -0.14188133 0.19245227
-0.90045297 0.25481242 2.9512258 -0.079921551 -0.99109763 -0.10648068 0.1702085
-0.89646143 -0.11413747 2.9885631 0.94924641 0.29147354 0.1182132 0.12090642
-0.90838438 -0.50379497 3.0465868 -0.62235904 0.72128904 -0.30399239 0.14246365
-0.90359831 0.041589011 2.9803483 0.43076369 -0.82916319 -0.35627377 0.20648777
-0.89040107 -0.44836816 3.0207963 0.9484868 -0.25931445 -0.18201308 0.20576714
-0.90277886 0.010936174 2.9855061 0.76707989 -0.36474127 -0.52778047 0.15236516
-0.89619756 -0.1311149 2.9944046 -0.92029852 -0.20585321 -0.33267871 0.070656002
-0.88565671 -0.2811023 3.000591 0.68003809 0.48533204 -0.54954618 0.21798733
-0.89430213 -0.11757014 2.9972534 0.94039494 0.29497498 0.16925479 0.10356422
-0.90501028 -0.47808126 3.050772 0.62603796 -0.76902282 -0.12915233 0.1733631
-0.89724624 0.023011426 2.9886279 -0.69382191 0.39391479 -0.6028617 0.24368756
-0.89545381 -0.048352495 2.997174 0.72918814 0.1393705 -0.66997045 0.075635612
-0.87876844 -0.28822941 3.0059383 0.68739188 -0.23162326 -0.6883626 0.16895787
-0.89455694 -0.17379238 3.012964 0.9187752 0.35791951 0.16657043 0.1152297
-0.89141583 -0.20815378 3.0143833 -0.3737379 -0.88948792 -0.26292819 0.098359771
-0.89238095 0.044946413 2.9886451 -0.61098999 0.74151474 -0.27721313 0.17154071
-0.87958366 -0.3146762 3.0137203 0.67922592 -0.3199375 -0.66052413 0.14312735
-0.87771952 -0.30074823 3.0105875 0.768004 -0.18439095 -0.61332685 0.17698151
-0.90268672 -0.0030170293 3.0079966 0.9619745 0.09804897 0.25493416 0.13388458
-0.87856275 -0.32878423 3.0190105 0.91397184 0.035500135 -0.40422174 0.16464195
-0.88919085 0.055016436 2.994905 -0.61099023 0.74151438 -0.27721334 0.17154083
-0.89264101 0.26585746 2.9898643 0.12059484 0.97441363 -0.1896704 0.2242709
-0.899755 -0.46783379 3.0840337 0.74176913 -0.67050767 0.014069919 0.17888221
-0.87428093 -0.33854198 3.0388098 -0.92737985 0.15284076 -0.34147677 0.075117998
-0.87848443 -0.35399619 3.046514 -0.86249459 0.11718683 -0.49231121 0.10293265
-0.86977983 -0.28529981 3.0280516 0.95520586 0.20097692 0.21723236 0.093003184
-0.88745642 -0.19683291 3.0423677 -0.95058864 0.026766036 -0.30929741 0.10204413
-0.95543021 0.17855071 3.1622307 -0.85596031 -0.25513619 -0.4497081 0.032446299
-0.960105 0.1967424 3.1866128 -0.85950381 -0.028542498 -0.51033187 0.066334784
-0.94539475 0.14671455 3.1817863 -0.80308753 -0.37496227 -0.46309137 0.019155668
-0.93335253 0.11250222 3.1944818 -0.77494299 -0.40338972 -0.48655951 0.0055827796
-0.87082863 0.2902962 3.0988328 0.07037174 -0.98594475 -0.15152855 0.089543052
-0.92432523 0.088430069 3.2028675 -0.79753631 -0.32223865 -0.5099982 0.01058421
-0.86620635 0.26067734 3.1103578 -0.21781856 -0.83422565 -0.50657946 0.178409
-0.90755343 0.038557775 3.1962702 -0.86366707 -0.16956118 -0.47468761 0.022139851
-0.8656975 0.28094953 3.1174743 0.79782867 0.59820676 -0.074953929 0.23953849
-0.9012925 0.021856042 3.1972888 -0.86916631 -0.13986428 -0.47432882 0.024145517
-0.91178709 -0.033261612 3.2205327 -0.86248851 -0.16393417 -0.4787893 0.022735402
-0.90994263 -0.022115974 3.2185013 -0.85067254 -0.0088558719 -0.52562124 0.015724605
-0.90515029 -0.0076512718 3.2104838 -0.88107407 -0.051494345 -0.47016692 0.018963059
-0.86279422 0.25980207 3.1233957 -0.52683288 -0.71594739 -0.45811182 0.15659346
-0.87141269 0.28361055 3.1448548 -0.77016151 0.33571869 -0.54235071 0.11635743
-0.86354673 0.29737115 3.134165 -0.31834519 0.89702982 -0.306584 0.17525358
-0.91032416 -0.076560445 3.2491171 -0.83169091 -0.25279686 -0.49435207 0.052951746
-0.85787916 0.30446997 3.1628959 -0.17253102 -0.88512158 -0.43219534 0.12335307
-0.85332078 0.27089497 3.1658478 -0.67062485 -0.31842494 -0.66997606 0.20423864
-0.85167068 0.29233384 3.1661003 -0.62250119 -0.63284743 -0.46043059 0.12542625
-1.3812814 0.24340646 2.6522462 -0.29635477 -0.81826872 -0.49255469 0.065898143
-1.1742175 0.18313558 2.5806892 0.43927658 0.89617288 0.062532388 0.11942466
-1.1548885 0.16647579 2.5919709 -0.20299701 -0.88795257 -0.41271347 0.10840266
-1.147468 0.15802641 2.5982964 -0.31346029 -0.82379305 -0.47234264 0.055238288
-1.1733586 0.27762115 2.6178126 -0.13694309 0.94875836 -0.28478795 0.1550785
-1.1364276 0.16257299 2.6071126 -0.34484306 -0.84280616 -0.41323233 0.04873313
-1.124176 0.12028293 2.6347337 -0.42719167 -0.28467575 -0.85817653 0.093360938
-1.1504426 0.012713264 2.6695035 -0.81074101 -0.29860386 -0.50352234 0.17757493
-1.1520088 -0.0013639727 2.6735117 -0.77250755 -0.15180437 -0.61659348 0.20209542
-1.119102 0.10706515 2.6389773 -0.60179263 0.66967827 -0.4351742 0.21438324
-1.1130252 0.12680806 2.6369767 0.032367289 -0.37274575 -0.92736888 0.14294915
-1.0912019 -0.017823296 2.665946 -0.45647219 -0.8501876 -0.26232445 0.11914785
-1.0625838 0.083606929 2.6478038 0.55879837 0.098986268 -0.82337481 0.26225314
-1.0730745 -0.04016196 2.6869268 -0.19383329 -0.95734477 -0.21428858 0.21031843
-0.99425107 0.25682345 2.5899465 0.27686104 -0.39188966 -0.87736559 0.12729342
-0.98408836 0.24887615 2.5932052 0.080813996 0.98299623 -0.16488633 0.18697661
-1.0553365 0.22013275 2.7009339 -0.48053485 0.56596422 -0.66990346 0.057565514
-1.0393777 -0.020696336 2.7156265 0.20430824 0.97334647 -0.10418669 0.23566854
-1.0578269 -0.12556148 2.770066 0.86383301 -0.50151074 -0.047743496 0.19884619
-1.0367357 -0.015212595 2.7393343 0.83960062 0.47002465 0.27230042 0.14935309
-1.0370669 -0.050730597 2.75213 0.88678497 0.42309192 0.18602559 0.10974415
-1.14775 -0.23216173 2.8845415 -0.81548142 0.17361906 -0.55212903 0.16265251
-0.97383738 0.10305363 2.6928425 -0.21232292 0.94522178 -0.24794072 0.18137924
-0.96237475 0.11228854 2.7055233 0.029667895 -0.99857384 -0.044385962 0.15131792
-1.0322511 -0.10759439 2.8065464 0.13030916 -0.83302528 -0.53766942 0.18433239
-1.0698344 -0.2144089 2.8714495 0.97126371 0.055516269 -0.23144031 0.17974736
-1.0344533 -0.13562375 2.8284619 -0.55057883 -0.40409014 -0.73046154 0.22468464
-1.0271343 -0.13594799 2.8497419 0.78742522 0.61590248 0.02501077 0.20045535
-0.95894748 0.032349683 2.7612512 -0.008074509 0.99883991 -0.047472477 0.1774165
-0.94092923 0.10578058 2.7386959 0.0013657035 -0.98435807 -0.17617382 0.13892189
-1.0247623 -0.052594144 2.8493812 0.32162136 -0.80717099 -0.49500966 0.24880545
-1.0977919 -0.46150371 2.9743433 0.47408211 -0.73290086 -0.48795745 0.2357848
-1.0975626 -0.47358277 2.9779046 -0.50160682 -0.66068667 -0.55846566 0.21033104
-0.98772246 0.21595441 2.8016005 -0.31726941 -0.90255821 -0.2910822 0.069226466
-1.0509075 -0.29682779 2.9247277 0.35426161 -0.094635829 -0.93034548 0.12591472
-1.0183787 -0.040836006 2.8687837 0.58423287 0.77553201 -0.23921122 0.1937291
-1.0616338 -0.3462137 2.9462938 0.82884014 -0.22501233 -0.51224357 0.15821122
-0.94900727 0.047055401 2.7958467 -0.45368212 -0.29242244 -0.84182042 0.17068845
-1.0067627 -0.111261 2.8965461 0.031318579 -0.82615483 -0.56257212 0.25210032
-1.0255449 -0.43438023 2.979986 0.83817929 0.048905343 -0.54319763 0.20615892
-1.0007664 -0.47097206 2.9753315 0.75792664 0.65140539 -0.034903038 0.21345372
-1.0108573 -0.2323565 2.9633727 0.97334266 -0.21362551 0.083475612 0.18946035
-1.0060716 -0.34478468 2.9852169 0.51456702 0.14367379 -0.84532762 0.19172779
-0.98583943 -0.40579093 2.9753718 -0.28731224 0.52448159 -0.80148035 0.16049254
-0.98866791 -0.46364042 2.9947572 0.38065717 -0.081802219 -0.92109096 0.19708966
-1.0022907 -0.51583213 3.0703847 0.44655293 -0.88326663 -0.14293566 0.13576065
-0.97993994 -0.15828288 3.0094416 0.73640049 0.087618724 -0.67084813 0.16433117
-0.96741778 -0.44708526 3.048671 0.73903048 -0.60413796 -0.29807931 0.17892468
-0.98793238 -0.022830637 3.0436852 -0.75284094 -0.57020628 -0.32877856 0.15170212
-0.9638136 0.30135623 2.9916961 0.038089365 -0.99876857 0.031788036 0.10120901
-0.96092772 -0.49926767 3.1258821 0.55581844 -0.82537514 -0.099104844 0.12405408
-0.93502724 -0.29890639 3.0756788 0.012890771 -0.065644972 -0.99775976 0.1924641
-0.9557029 0.29142275 3.0506918 0.72284603 0.31961131 -0.61265182 0.15637805
-0.95114756 0.27069423 3.0751929 0.87325925 -0.22608235 -0.43163061 0.21339341
-0.93115354 -0.05131653 3.0877655 -0.46157473 -0.83400053 -0.30231076 0.18728305
-0.94854194 0.26213908 3.0911198 0.86767995 0.30376685 -0.39351901 0.19403405
-0.93622625 0.29434988 3.1915305 0.11318868 -0.99313331 0.029571094 0.20052494
-0.93398094 0.26766026 3.1990941 -0.59054917 0.41845071 -0.69003665 0.13530868
-0.98324829 0.037324447 3.2966456 -0.212302 -0.5227493 -0.82562768 0.14027087
-0.9766804 0.019991908 3.2976401 -0.45285478 -0.31351006 -0.83464605 0.13045102
-0.98147905 -0.010740084 3.3124239 0.14063741 0.74650788 -0.65034384 0.13811374
-0.93275225 0.30127552 3.2226293 0.163863 0.85065979 -0.49952668 0.16967392
-1.2245708 0.18834837 2.5996199 -0.13933383 -0.98788184 -0.068378173 0.083209008
-1.0696025 0.10082924 2.6737237 -0.049256302 -0.7170611 -0.69526768 0.14285259
-1.0358683 0.053421944 2.6919606 0.90080291 0.26310572 -0.34544104 0.19580965
-1.0348086 0.092013121 2.6884634 0.34883937 -0.93421614 -0.074506544 0.14841722
-1.0327493 0.070677303 2.6916804 0.56949741 0.78824836 -0.23310347 0.1665635
-1.0023085 0.052091826 2.7417998 0.43857282 -0.47979245 -0.75990331 0.23894851
-1.0196837 -0.54132175 3.1233182 -0.62129503 0.59334236 -0.51179814 0.078009441
-1.0167491 0.032418765 3.088218 -0.92359328 -0.19826376 -0.32812637 0.17472319
-0.99639243 0.040196825 3.0925524 0.87317437 0.44373763 0.20165198 0.076428495
-0.98685747 -0.044274766 3.1109428 0.75721055 0.46858913 -0.45503449 0.097590327
-0.98838592 0.053029478 3.1039948 -0.6290462 -0.69965869 -0.33879 0.099517435
-1.0476619 0.11461413 3.3438952 0.80327994 0.44171256 -0.39953893 0.12499823
-1.0197265 0.036494542 3.3450439 0.52145189 0.79144591 -0.31890658 0.081736438
-1.1137006 0.048229072 2.6891644 -0.35766402 0.31499583 -0.87912118 0.23538193
-1.2263292 0.032517981 2.720706 -0.80952394 -0.27349573 -0.51949108 0.032696776
-1.3724871 0.20788072 2.712157 -0.22235854 -0.83000082 -0.51152253 0.0596205
-1.3607727 0.2011341 2.7144556 -0.22496396 -0.82615215 -0.51658863 0.059500586
-2.0247617 -0.027763309 3.9350114 0.49258196 0.86560965 0.089904979 0.046695337
-2.809185 0.46285257 3.9395325 0.42341647 -0.87192065 -0.24591252 0.14952886
-2.5801895 0.36644509 3.9957213 -0.18649863 0.8741051 -0.4485071 0.12684703
-1.3190783 0.25986451 2.6143875 -0.57020783 -0.49991515 -0.65188026 0.11003914
-1.3116097 0.26128832 2.6139939 -0.54914409 -0.20229553 -0.8108744 0.076323241
-1.189931 0.14543584 2.6253159 -0.47777689 -0.75512356 -0.44890711 0.093223661
-1.1662111 0.24648757 2.6458638 0.78769183 -0.52318519 0.32529819 0.15330343
-1.177615 0.053072862 2.6761138 -0.69098759 -0.44699416 -0.56809539 0.18948656
-1.1484747 0.27883634 2.650017 0.23482174 -0.97202498 -0.0051252455 0.065513
-1.163229 0.082756013 2.6720672 0.98264354 -0.044617806 0.18005833 0.19575514
-1.1537474 0.086323746 2.6743243 0.98264349 -0.044617422 0.18005879 0.1957555
-1.1415923 0.00023590069 2.6897678 0.92914891 0.25307897 0.26950574 0.23430763
-1.1154155 0.042490516 2.6924489 -0.69977325 -0.13759142 -0.70098931 0.21443832
-1.108523 0.050057478 2.6982965 -0.021328311 0.045013733 -0.99875867 0.16654378
-1.0689191 0.29360479 2.6673996 -0.15129246 -0.9883163 0.018480375 0.063931525
-1.1281713 0.19340365 2.7105901 -0.25387585 0.73953533 -0.62340558 0.14043182
-1.1447685 -0.10327214 2.7514272 -0.60435247 -0.74060744 -0.2936984 0.14958839
-1.0831536 -0.015542197 2.7178757 0.20764369 0.87177879 -0.44371831 0.1324593
-1.1158081 0.22228606 2.727071 -0.16462784 0.43646526 -0.88453138 0.098234273
-1.1486057 0.18698816 2.7529821 -0.43737411 0.59885871 -0.67087418 0.097787514
-1.0933458 0.23208433 2.7459416 0.024382776 0.57820755 -0.81552535 0.1149366
-1.1298684 -0.15757911 2.8008394 0.89719135 0.4250018 0.12008837 0.15302664
-1.0496079 0.25142917 2.744662 -0.20524533 0.86367327 -0.46037254 0.19112743
-1.0425277 0.03363933 2.7600815 0.9782865 -0.12983716 0.16154826 0.15919033
-1.0722057 -0.013761597 2.7892082 -0.92545712 -0.02988863 -0.37767154 0.16659161
-1.0685107 -0.039307903 2.8071795 0.95282036 0.28369048 0.10794984 0.23158039
-1.0574286 -0.11039378 2.8326371 0.92591256 -0.3222416 0.19709462 0.19841605
-1.0963212 -0.24953403 2.8710938 0.0070886565 0.98568916 -0.16842452 0.19423485
-1.0694101 -0.22819164 2.8730481 0.8693217 -0.48365423 -0.10177617 0.14264345
-1.053546 -0.080452666 2.8595173 0.91356719 -0.31424278 -0.25815967 0.16599244
-1.0914829 -0.33540758 2.9051535 -0.24064294 -0.30128688 -0.92266852 0.20004144
-1.066062 -0.26866075 2.8865933 0.70093608 -0.17316885 -0.69188225 0.14130799
-1.0336486 0.24311955 2.8333898 -0.42968187 0.78084075 -0.45349872 0.21035343
-1.0445263 -0.13821433 2.8681958 -0.43505892 -0.82769531 -0.35446328 0.245542
-1.0838656 -0.34166557 2.9087064 -0.24064246 -0.30128661 -0.92266864 0.20004119
-1.0616056 -0.31390107 2.8950539 -0.87794977 0.071039297 -0.47345293 0.235016
-1.0809463 -0.36157709 2.9134355 -0.38717404 -0.48931551 -0.78145152 0.14250389
-1.0281627 0.29946294 2.8357608 -0.4105016 0.86135149 -0.29926923 0.14657564
-1.0011537 0.056541003 2.840416 -0.38344052 0.74329263 -0.54816931 0.14225982
-1.0739248 -0.3457571 2.9214988 -0.24064322 -0.30128729 -0.92266834 0.20004165
-1.0227754 0.26089177 2.8457005 -0.60920668 0.70750153 -0.35820225 0.15386437
-1.0266243 0.24215521 2.8500121 -0.76337743 -0.48353779 -0.42830613 0.13204025
-1.0741489 -0.38996661 2.9277959 -0.40300009 0.016159991 -0.91505724 0.096171744
-1.054909 -0.25142688 2.908751 0.76448941 -0.12927191 -0.63154155 0.10451646
-1.0657855 -0.45225605 2.9395025 0.021705039 -0.96022701 -0.27837572 0.081148334
-0.99652058 0.087397516 2.855145 0.27543774 -0.95974898 0.054917648 0.15679535
-1.0371655 -0.23201507 2.9107816 0.86437404 -0.37826756 -0.33131728 0.23804845
-1.0465689 -0.34278998 2.9298067 0.23488529 0.20927037 -0.94922853 0.17591952
-1.0346434 -0.27612379 2.9214222 0.74785894 0.40595296 -0.52527058 0.18304101
-1.0328916 -0.22196814 2.918462 0.87301272 -0.26293892 -0.4107455 0.21222049
-1.0313793 -0.29345435 2.9319484 0.37011465 0.022070967 -0.92872381 0.18473397
-1.0269499 -0.25406808 2.9373436 0.84768349 -0.06862025 -0.52604556 0.17633165
-1.0188407 -0.19626158 2.9302006 0.80947059 -0.067942485 -0.58321625 0.17090073
-1.024693 -0.21309474 2.9356711 0.86821032 -0.49374503 0.049261697 0.1543344
-1.0118536 -0.15324491 2.9232008 0.96485198 -0.24554484 0.093639284 0.14137936
-1.0110708 -0.16654924 2.9236116 -0.8886835 0.19041319 -0.41711447 0.14715084
-1.0131357 -0.1413794 2.9261265 0.93751514 -0.30284116 0.17132588 0.17135142
-1.0228611 -0.44462982 2.9575906 0.63158011 0.76212382 -0.1423862 0.23846795
-1.0160925 -0.19659476 2.9398475 0.92760324 -0.27209795 -0.25595891 0.1500458
-1.0100353 -0.17151205 2.9413331 -0.76564753 0.2762039 -0.58094335 0.15154742
-1.0089185 -0.46364495 2.9615946 0.9011997 0.42020026 -0.10616437 0.25612804
-1.0107672 -0.43041983 2.9632595 0.93359292 -0.23890911 -0.26707068 0.23065342
-1.0187743 -0.49215204 2.9741185 0.5220713 -0.42867726 -0.7373448 0.12741642
-1.0052376 -0.14214912 2.9438918 0.90416586 -0.42629859 0.027452478 0.16909856
-0.99736941 0.21170586 2.9138045 0.097965553 0.94260591 -0.3192127 0.11637191
-1.0071385 -0.19661881 2.9535677 0.9607892 -0.2361754 -0.14527643 0.14426744
-1.0063213 -0.23215206 2.9582372 0.91521853 -0.11857519 -0.38511676 0.17374285
-0.99158335 -0.4161981 2.9663379 -0.21531825 0.5327341 -0.81843293 0.16629176
-1.0107828 -0.051837578 2.9581642 0.78621215 0.30133924 -0.53950459 0.14700511
-0.99666202 -0.11584248 2.9599705 0.90605181 0.0019867783 -0.42316207 0.1515103
-0.99676853 0.28191993 2.9326813 0.29823032 0.95008492 -0.091636814 0.10511011
-0.99347508 -0.13841039 2.9619384 0.85162377 -0.52389717 0.01638942 0.098977916
-0.99633265 0.30018488 2.9347711 -0.14463083 -0.98881781 0.036349829 0.09866906
-0.99279732 -0.27096486 2.9783068 0.79770255 0.53072393 -0.28636134 0.18762256
-1.1402698 0.17302701 3.0545299 0.32179591 -0.77310115 -0.54659128 0.041673217
-0.97151905 -0.39317495 2.9831481 0.21792331 0.97545397 -0.031606112 0.15831955
-0.97077131 -0.41400909 2.9943771 0.43173859 -0.38993669 -0.81335801 0.17384413
-0.98558974 0.25716829 2.9589245 0.038262624 0.97246706 -0.22987787 0.16337337
-0.97178793 -0.48856053 3.0042584 0.65667599 -0.20451587 -0.72591317 0.2442012
-0.98789728 0.30178925 2.961139 0.16415121 0.98202872 -0.093134411 0.093503192
-0.95264345 -0.48183343 2.9978578 0.94392782 -0.24048872 0.2261977 0.23943113
-0.95427507 -0.45771831 3.0054932 0.84792256 -0.52343625 0.083915375 0.16470799
-1.0115212 0.047039516 3.0168076 -0.17563117 -0.96702349 -0.18444301 0.11634433
-0.94620258 -0.33263171 2.9998124 0.19222626 -0.090152487 -0.97720087 0.24208608
-0.95293844 -0.46951956 3.0166094 0.95382643 -0.27287084 0.12552586 0.2461464
-0.98729891 -0.062188867 3.013171 0.38702711 0.92181939 0.021424666 0.20382267
-0.96243399 -0.22634512 3.0118403 0.65475839 -0.75570863 0.013998376 0.19016109
-1.0045328 0.054538921 3.0238445 -0.15438327 -0.98400629 -0.08886753 0.035917412
-1.0024475 0.040187713 3.0236979 -0.57759511 -0.75389111 -0.31310081 0.15797643
-0.97275835 0.26035282 2.9937942 0.30872545 0.92731601 -0.21159765 0.1750593
-0.97882611 -0.027732501 3.0271356 0.90482843 0.4204751 0.066979572 0.17308259
-0.93371803 -0.40543333 3.0230086 0.92136067 -0.15915249 -0.35463354 0.19144692
-0.94748008 -0.44663608 3.0372641 0.8591637 -0.50089025 -0.10462638 0.16123602
-0.94718176 -0.46736553 3.0406501 0.8559016 -0.22635184 -0.46497026 0.18336821
-0.95411295 -0.48881096 3.0478556 0.76766545 0.46271831 -0.44337529 0.16817485
-0.92893928 -0.38790408 3.0220356 0.95478219 0.15985897 -0.25067127 0.11231437
-0.95528269 -0.18208355 3.0368152 0.82711285 -0.082095131 -0.55600786 0.11748485
-0.9348225 -0.348584 3.0401144 0.81914395 -0.42887446 -0.3808803 0.12516019
-0.93377519 -0.39049172 3.0483768 0.98500311 -0.018297609 -0.17156371 0.13353021
-0.94678628 -0.14566766 3.0414667 -0.7044459 0.022089943 -0.70941377 0.2418762
-0.9470467 -0.18239129 3.0453789 0.82878608 0.064774543 -0.55580372 0.11970485
-0.96351969 0.29503706 3.0235934 0.9230758 0.32702458 -0.20245002 0.11654414
-0.94018799 -0.47396073 3.0636754 0.18922262 -0.42204612 -0.88660693 0.21546885
-0.9612776 0.28265139 3.0274184 0.9799844 0.19672722 -0.030479304 0.12944849
-0.95781523 0.25976819 3.0313783 0.83811533 0.26015073 -0.47946244 0.17562258
-0.92859095 -0.46999532 3.0655797 0.60097188 -0.58142477 -0.54843247 0.15017456
-0.95934397 0.29726255 3.0358825 0.16632713 -0.98135036 0.096368156 0.16221982
-0.94056743 -0.083004959 3.052824 0.80115527 -0.497989 -0.33189923 0.26177412
-0.92363477 -0.47138301 3.0771077 0.90092665 -0.42902586 0.065329887 0.14766595
-0.92070448 -0.3748953 3.0676324 0.90925497 -0.37041923 -0.1898551 0.15477434
-0.95486367 0.28713182 3.0455072 0.83048248 0.52837443 -0.17640629 0.18072709
-0.91827065 -0.36375475 3.0695901 0.93248022 -0.35179126 -0.081997715 0.14244087
-0.92204499 -0.37335455 3.074935 0.93017232 -0.35922202 -0.075756148 0.14954147
-0.93326694 -0.20752658 3.0712991 0.41747051 0.90722197 -0.051639393 0.16161014
-0.91795349 -0.27863503 3.0654762 -0.49354702 -0.096448928 -0.86435461 0.17375185
-0.92656261 -0.22591588 3.0714064 -0.92697281 -0.020430362 -0.37457186 0.13454719
-0.95099413 0.28769034 3.0553086 0.68975502 0.58318782 -0.42910355 0.13342811
-0.92386717 -0.48958436 3.0975661 -0.75810051 0.54424948 -0.35927173 0.15679049
-0.91505778 -0.27520895 3.0762515 -0.74728769 -0.11154188 -0.65507215 0.11827908
-0.92594564 -0.43756557 3.1003621 -0.94799769 -0.084595785 -0.3068288 0.11065504
-0.94567329 0.26397941 3.064966 0.72119051 0.68879139 0.073827863 0.14138022
-0.94707489 0.29272819 3.0660672 0.67622602 -0.69723994 -0.23785473 0.1656372
-0.92387152 -0.18597251 3.0927687 -0.77048153 0.12910022 -0.62425256 0.18159083
-0.92780501 -0.13523714 3.0920711 0.9675355 -0.069572866 0.24297023 0.095087573
-0.94605345 0.30014381 3.0734015 0.31669423 -0.92612278 -0.20494211 0.14843383
-0.92125654 -0.21130465 3.0954962 -0.83314836 -0.29941705 -0.4649874 0.13571602
-0.92614919 -0.10798732 3.0924368 -0.65523982 -0.13684405 -0.74292296 0.17579775
-0.94195455 0.28733405 3.0764594 0.72980189 -0.40388936 -0.55159992 0.17310563
-0.91670263 -0.055490319 3.0827692 0.22021477 -0.85194552 -0.47507298 0.13195468
-0.91654086 -0.48624006 3.1160944 -0.67269987 0.60451698 -0.42665446 0.16003977
-0.92395067 -0.17870514 3.0987759 -0.70349735 0.15292168 -0.69405067 0.068412781
-0.92153633 -0.19586362 3.0990295 -0.77048165 0.12910014 -0.6242525 0.18159086
-0.93927354 0.2615563 3.0795305 -0.43973985 -0.74199188 -0.50604045 0.27090245
-0.92048919 -0.076713316 3.0921106 -0.039531808 -0.9463411 -0.32074279 0.22591753
-0.90450329 -0.31990698 3.0982068 0.97011095 -0.060002055 0.23512667 0.10815965
-0.93327355 -0.12361797 3.1076484 -0.92100459 0.084683232 -0.38023588 0.07418032
-0.926054 -0.15522176 3.1047201 -0.92542732 0.020347046 -0.37837848 0.050920174
-0.92244154 -0.087464817 3.0968394 -0.71815759 -0.052091599 -0.69392806 0.21579321
-0.92876083 -0.10926986 3.1074848 -0.75388181 0.13612448 -0.64275372 0.18145883
-0.91383922 -0.062591605 3.0975301 -0.44156301 -0.61972278 -0.64881879 0.2103145
-0.93692058 0.29062882 3.0897057 0.74944222 -0.45687187 -0.47917068 0.13495509
-0.92573369 -0.089726083 3.1110871 -0.87920183 0.048695225 -0.47395456 0.22306147
-0.91648299 -0.071530104 3.1028934 -0.58943605 -0.51758331 -0.62021977 0.27371958
-0.93390828 0.26973706 3.0916822 0.041976828 0.98111403 -0.18882082 0.15910855
-0.92120588 -0.41549423 3.1354358 -0.87621397 -0.098767102 -0.47169274 0.043505881
-0.93053544 -0.13448375 3.1229734 0.93179017 -0.36241761 0.020510176 0.12834935
-0.92911315 -0.11018571 3.1285515 0.91870427 -0.30006772 -0.25679144 0.039563619
-0.92981708 0.29679841 3.1084535 0.79009891 -0.60666186 0.087778203 0.13518517
-0.91787672 -0.27121949 3.1474273 0.96957934 0.22041216 0.10646326 0.095384471
-0.92659295 0.27894983 3.1145232 -0.2165838 0.7970804 -0.56369698 0.11767785
-0.93636805 -0.14945038 3.1605756 0.92821449 -0.33895689 -0.15338194 0.052806906
-0.92249292 0.2741183 3.122967 0.26088238 0.86741477 -0.42371222 0.15762348
-0.90462452 -0.064574093 3.1366575 -0.30255955 -0.85818779 -0.41469446 0.17951365
-0.90536761 -0.073034167 3.1445849 0.96373314 -0.25357607 -0.083172038 0.12525132
-0.92127788 0.30115923 3.1316888 0.43824238 -0.89862144 0.020569813 0.15787989
-0.96704161 0.19133948 3.1834679 -0.86312115 -0.11273474 -0.49225271 0.069012299
-0.90461999 -0.075851485 3.1536851 0.99733555 -0.071795642 -0.01293366 0.098235033
-0.91824281 0.29326934 3.1388793 0.33655801 -0.85699993 -0.3902306 0.1955995
-0.90638763 -0.097222857 3.169117 0.96788818 -0.20090944 -0.15108924 0.058274724
-0.95519173 0.15539613 3.1942563 -0.81014794 -0.29484403 -0.50668263 0.034741469
-0.94857913 0.13708274 3.1951869 -0.78419113 -0.40745437 -0.46800131 0.0052769594
-0.91312045 0.29572809 3.1536789 -0.2625753 -0.92971444 -0.25823492 0.14836459
-0.96596867 0.21184927 3.2088592 -0.89645696 0.071235873 -0.43736768 0.060732979
-0.90551144 -0.11088679 3.1834381 0.97084248 -0.22514632 -0.082304321 0.06368506
-0.9430654 0.11664603 3.1999485 -0.78481162 -0.42770255 -0.44848782 0.0016137592
-0.96709728 0.23192723 3.2112446 -0.82910925 0.26293561 -0.49339914 0.06970159
-0.91829723 -0.073181048 3.1965246 0.99500608 -0.0034340492 0.099755049 0.026394054
-0.96644521 0.2208637 3.2152796 -0.8964569 0.071235888 -0.43736771 0.060732983
-0.90579653 -0.13348961 3.1920593 0.95703983 -0.28950435 0.016185109 0.063894972
-0.90469652 0.26475802 3.1606359 0.74178708 0.6702925 0.021447817 0.10680129
-0.90611076 -0.12357005 3.1963344 0.95703983 -0.28950441 0.016185107 0.06389498
-0.90573752 -0.11182547 3.2000139 0.98392034 -0.064430892 0.166582 0.037314165
-0.90301913 0.28535798 3.1663895 -0.80541635 -0.54633629 -0.22982843 0.16084984
-0.90641981 -0.12509717 3.204401 0.97612733 -0.20957045 0.057057571 0.060085014
-0.93080884 0.089095347 3.2114265 -0.77967978 -0.34017727 -0.52571744 0.010863836
