ply
format ascii 1.0
element vertex 1309
property float x
property float y
property float z
property uchar red
property uchar green
property uchar blue
end_header
-2.16714 -0.292755 4.64106 53 54 53
0.852469 -0.0663658 1.70158 128 130 132
0.273559 0.0397899 2.26377 43 44 46
-2.81428 -0.327571 5.28306 25 29 30
-2.59735 -0.305168 5.08151 25 29 32
-2.41966 -0.325358 4.90901 67 68 64
0.285201 0.0346116 2.25672 47 48 53
-2.82973 -0.33842 5.31567 104 106 109
-2.60502 -0.329483 5.09857 25 29 28
0.20644 0.021858 2.33604 34 35 40
-2.62556 -0.332632 5.13058 94 99 104
0.86093 -0.0541766 1.69854 40 42 44
0.866697 -0.0575681 1.69484 32 37 40
0.873418 -0.0608923 1.68842 108 106 104
0.903305 -0.0624503 1.65913 50 53 55
0.648655 0.116368 1.9085 64 67 72
-0.858766 -0.194927 3.41581 121 125 132
0.859734 -0.0627858 1.70454 92 99 107
0.739324 0.0911365 1.82394 80 95 107
0.850816 -0.0662904 1.72119 115 116 118
0.744985 0.110422 1.82457 37 43 48
0.892546 -0.0637336 1.67902 107 104 100
0.878581 -0.0643819 1.6984 161 159 158
0.917394 -0.0559799 1.66602 182 178 177
0.938229 0.0690288 1.64444 82 81 81
0.999819 0.0672408 1.58886 38 43 49
0.404079 0.0571596 1.93787 46 49 53
0.378833 0.0351804 1.96926 98 92 92
0.372524 0.0575385 1.97492 38 39 40
0.373132 0.0424236 1.98098 107 104 104
-0.238708 0.22326 2.55692 114 121 124
0.0568184 -0.170622 2.32453 70 76 79
0.173902 -0.225442 2.22632 38 42 46
0.0384531 -0.0570463 2.33929 29 33 40
0.0498143 -0.0686469 2.33364 91 97 102
0.0486692 -0.0801572 2.33904 36 37 44
0.0352178 -0.0647054 2.35065 49 55 64
0.18931 -0.230078 2.2221 101 101 104
-0.865329 0.303481 3.14525 65 74 80
-0.843984 0.276481 3.13061 49 56 63
0.219302 -0.235534 2.21446 77 79 81
0.316263 -0.233592 2.14037 118 122 127
-0.171605 -0.0765595 2.58302 121 121 120
0.349049 -0.231338 2.13333 36 41 42
0.363268 -0.227362 2.12764 29 35 34
-0.207876 -0.0964056 2.6556 101 102 102
-0.173736 -0.114347 2.62488 153 149 147
-0.207112 -0.106042 2.67379 50 56 60
-0.196038 -0.112124 2.66524 125 124 124
-0.33177 -0.0238856 2.8001 60 63 70
-0.239552 -0.101534 2.72556 86 90 95
-0.207848 0.0117302 2.70071 25 27 32
-0.230926 -0.113703 2.73781 154 147 140
-0.237871 -0.113781 2.75434 142 135 129
-0.254866 -0.108199 2.77402 59 61 62
-0.140834 -0.120762 2.66773 78 76 75
-0.270023 -0.101786 2.79804 25 29 30
0.339269 -0.160713 2.21482 40 42 44
0.349757 -0.175376 2.215 92 99 107
0.805235 0.0393643 1.64652 107 104 104
0.6741 -0.109344 1.79879 38 42 46
0.580636 -0.021205 1.8786 53 54 60
0.587076 -0.0301656 1.8764 36 37 44
0.428544 -0.0233406 2.0373 71 71 71
0.437124 -0.0512902 2.06088 153 149 147
0.415993 -0.0432369 2.084 100 100 100
0.39558 -0.0438563 2.12274 86 90 95
0.390721 -0.0473278 2.14721 59 61 62
0.476772 -0.0525816 2.06619 78 76 75
0.382401 -0.0435845 2.16072 25 29 30
0.805799 -0.0740444 1.75865 92 99 107
0.481463 -0.0462251 2.02002 153 149 147
0.461526 -0.0388281 2.04181 100 100 100
0.471689 -0.0441508 2.03497 95 97 100
0.469123 -0.04291 2.06214 69 67 62
0.410221 -0.00949923 2.0283 108 108 108
0.413422 -0.0164099 2.03603 70 66 62
0.922016 -0.06907 1.59813 200 196 194
0.481089 -0.036499 2.0238 100 100 100
0.503001 -0.041029 2.01082 125 124 124
0.48335 -0.0353944 2.03956 86 90 95
0.364306 -0.0117272 2.06777 108 108 108
0.37911 -0.0168043 2.06612 128 127 128
0.56088 -0.0317306 1.95571 50 56 60
0.569586 -0.0342459 1.94848 125 124 124
0.561153 -0.0282542 1.96572 86 90 95
0.668754 -0.00737136 1.79886 46 50 55
0.702069 -0.0141122 1.77545 91 97 102
0.337867 -0.0128323 2.09054 108 108 108
0.348049 -0.0141576 2.08259 81 80 79
0.52912 -0.0222067 1.95504 121 121 120
0.595559 -0.0117222 1.86103 46 50 55
0.239103 -0.0218103 2.17826 140 137 136
0.307223 -0.0229726 2.12617 148 144 140
0.506508 -0.0243912 1.97521 121 121 120
0.524105 -0.0274412 1.9618 44 47 47
1.08358 -0.00385919 1.46378 24 25 24
0.62403 -0.0234736 1.88779 101 102 102
1.51722 0.013219 1.10618 58 63 67
1.12604 0.00385085 1.42455 24 25 24
1.16554 0.0550541 1.41304 50 57 66
-2.74545 -0.887306 4.66076 130 154 174
-2.4108 -0.634632 4.69184 24 25 24
-2.84591 0.618395 5.85043 50 57 66
-2.88783 0.624277 5.8968 50 57 66
-1.23063 -0.303274 3.84171 80 87 99
-7.43668 1.22552 10.9307 50 57 66
-6.76749 0.970639 8.34834 44 55 65
-6.73301 0.935105 8.33472 114 124 132
-4.15385 -0.758815 7.26272 115 116 119
-6.40188 0.918296 8.21926 95 109 123
-5.24131 0.527936 7.77373 82 93 105
-5.10026 0.415102 7.73989 34 35 40
-4.68204 0.757361 7.46329 142 141 146
-4.69457 0.826961 7.47698 61 71 82
-3.94429 0.723765 7.04445 107 109 114
-12.2817 1.12471 11.1562 55 60 64
-16.7905 1.63503 14.5806 83 88 91
-17.1472 1.67915 14.8028 64 67 70
-11.4521 1.03941 10.6997 185 178 174
-30.7169 3.22563 25.0293 64 68 67
-2.96399 0.143608 4.46234 110 108 108
-14.2351 1.35719 12.8505 80 86 89
-2.87661 0.137106 4.40628 44 47 51
-2.47437 0.103218 4.11879 122 118 117
-13.5164 1.28142 12.411 90 96 96
-29.5872 3.11345 24.6258 47 47 46
-39.8335 4.29471 32.6009 67 73 73
-1.607 0.0351812 3.49006 97 92 91
-21.565 2.20123 18.6983 94 107 114
-1.56554 0.0336032 3.46713 94 89 89
-11.0749 1.02266 10.8456 21 23 25
-1.86575 0.0598364 3.7133 111 108 108
-10.3053 0.936605 10.265 126 125 122
-1.86939 0.0613191 3.7238 38 40 41
-1.92671 0.0660955 3.76846 110 110 112
-1.50138 0.0319952 3.43796 50 48 50
-9.9611 0.901422 10.04 160 156 154
-11.449 1.06913 11.2185 90 90 89
-9.7415 0.880185 9.90397 39 41 43
-11.5414 1.08102 11.3146 38 41 43
-9.92925 0.902772 10.0738 143 143 142
-11.6828 1.09974 11.4571 112 113 112
-10.4171 0.959474 10.48 33 35 35
-11.6668 1.10066 11.4734 28 30 30
-14.6946 1.45184 13.938 21 24 27
-10.3136 0.95617 10.4783 33 37 38
-8.1064 0.710501 8.73252 71 70 64
-9.6887 0.888713 10.0121 128 127 124
-8.63841 0.774367 9.2003 175 171 169
-9.59446 0.883878 9.99524 20 23 23
-10.7452 1.01432 10.9221 22 26 27
-8.84902 0.801125 9.40727 50 49 47
-7.55124 0.659216 8.35645 168 165 163
-8.41693 0.754506 9.07472 151 146 141
-9.63037 0.890989 10.0559 147 146 144
-10.3766 0.976108 10.6702 35 42 48
-8.71192 0.789019 9.32748 72 72 67
-8.19088 0.732838 8.92748 160 158 154
-9.88344 0.923148 10.3005 45 52 55
-9965.94 1163.77 8150.98 42 44 44
-246.039 28.4758 203.671 100 104 107
-91.7226 10.4657 77.4988 53 58 60
-73.1649 8.29444 62.4102 116 122 126
-51.315 5.76059 44.8467 103 106 108
0.403003 -0.0462779 1.99823 32 33 34
-10.4671 1.00051 10.8838 71 82 92
-1.53761 0.0533042 3.62163 110 104 104
0.465411 -0.0452436 1.94908 156 149 146
-68554.6 8159.78 57272.8 48 52 53
-1.02413 0.0145146 3.19915 73 72 78
-1.59917 0.0602202 3.69236 92 101 107
-107944 12911.1 90603.8 116 124 128
-0.868362 0.00450487 3.07799 34 34 39
0.992698 -0.0149324 1.52337 99 101 102
0.176923 -0.0431491 2.21159 89 99 107
0.904237 -0.0236116 1.59921 105 103 101
1.16079 0.00819134 1.38217 95 95 96
-200.751 23.5702 174.098 52 55 55
0.221881 -0.0428502 2.18282 32 37 46
1.31082 0.0378024 1.25447 35 39 43
0.377842 -0.0436323 2.0516 41 42 48
0.681199 -0.0373282 1.79302 71 81 92
-0.0758182 -0.0346119 2.44557 96 97 98
0.344227 -0.0434395 2.08163 91 97 102
0.653199 -0.0385313 1.81906 30 29 34
-0.0166668 -0.0362628 2.39837 144 142 141
0.625896 -0.0393356 1.84243 69 73 80
0.589809 -0.0402726 1.87417 77 78 82
0.299789 -0.0429674 2.12323 44 49 58
0.444569 -0.0429097 1.9988 36 37 43
0.12151 -0.0402917 2.28002 163 157 155
0.357325 -0.0431125 2.07397 52 54 61
-102.877 12.0409 91.7327 61 69 73
-446084 52037.3 383059 132 139 146
0.47139 -0.0425301 1.97681 47 50 59
-223.56 26.4699 196.746 118 126 134
-44.2863 5.05232 40.92 135 138 143
-82.2001 9.58298 73.9024 107 115 121
-59.5333 6.87402 54.2006 49 57 64
0.612095 -0.0393225 1.85768 33 36 42
1.33765 0.0442489 1.23125 96 95 97
0.702977 -0.0360324 1.77981 81 91 105
0.387715 -0.0427904 2.05178 47 48 55
0.283382 -0.0426051 2.14257 98 107 115
0.063526 -0.0379279 2.33752 144 139 136
0.713216 -0.0354545 1.77259 20 20 24
0.589695 -0.0398239 1.88013 71 78 90
-44.5904 5.10621 41.4045 59 71 82
0.0411519 -0.0369871 2.36017 141 139 138
1.1293 0.00323678 1.41217 16 18 20
0.787164 -0.0313904 1.71021 29 31 36
-350098 41612 304094 63 78 93
0.412345 -0.0422312 2.03648 80 89 98
-0.0138751 -0.0346154 2.41379 38 41 43
0.547211 -0.0404963 1.92001 23 24 27
-79804.7 9720.9 69959.3 59 72 87
-46.1669 5.31455 43.0149 116 125 133
1.38128 0.0556114 1.19279 27 33 37
0.614042 -0.0388064 1.86386 67 75 84
0.589768 -0.0394449 1.88538 63 69 77
1.37552 0.0540464 1.19768 95 96 97
1.32031 0.0400357 1.24597 20 23 25
1.39159 0.0584696 1.18356 126 123 119
-39.1214 4.48278 36.9904 44 54 63
1.30236 0.0358502 1.26171 134 132 131
-630555 74441.5 552712 71 88 106
1.14591 0.00590183 1.39977 42 47 54
-676624 79908.5 593432 50 63 76
1.21182 0.0171903 1.3416 123 123 125
1.30237 0.0358539 1.26169 140 140 141
1.16139 0.0084028 1.38624 139 139 140
1.30244 0.0358692 1.26163 102 98 94
0.496493 -0.0409487 1.97189 68 74 81
1.30534 0.0365324 1.25907 142 139 138
1.20002 0.0150383 1.35236 124 125 128
0.198359 -0.0392984 2.24135 73 73 71
1.30235 0.0358495 1.26171 145 143 144
1.12652 0.00292539 1.4176 97 102 110
0.307478 -0.0413274 2.1448 152 144 140
1.30247 0.0358768 1.2616 137 136 132
0.565545 -0.0394718 1.91425 91 97 107
-36.5915 4.19709 34.9899 58 68 78
1.18821 0.0129653 1.36305 37 44 50
1.11696 0.00151383 1.42634 44 51 58
1.34586 0.0463189 1.22319 110 105 102
1.15319 0.00704714 1.39431 116 118 122
1.12935 0.00336181 1.41556 61 68 75
1.40356 0.0619356 1.17174 40 46 52
1.45112 0.0764029 1.13045 186 182 180
-670721 80303.9 593876 54 67 81
1.11029 0.00053527 1.43266 124 123 123
1.39721 0.0601156 1.17729 75 75 76
1.30234 0.0358464 1.26172 124 126 130
1.41312 0.0647483 1.16295 50 55 60
1.30236 0.0358514 1.2617 40 45 49
1.41724 0.0659812 1.15913 48 51 54
1.40811 0.0632778 1.16727 124 119 112
1.14027 0.00505758 1.40645 141 140 141
1.1998 0.0150135 1.35327 81 86 94
1.30235 0.0358492 1.26171 89 93 100
0.303296 -0.0402278 2.15714 120 119 118
-21.1273 2.33571 21.2805 49 63 80
0.713919 -0.0344874 1.78685 26 27 30
0.339297 -0.0405293 2.12569 59 59 58
1.11719 0.00155402 1.42742 136 134 135
1.4483 0.0755346 1.13198 148 146 146
1.08945 -0.00241213 1.45236 144 141 139
1.36197 0.0505244 1.20838 25 28 30
0.368327 -0.0405359 2.1017 45 47 48
1.4125 0.0646061 1.16294 29 34 36
1.41904 0.0665465 1.15703 141 138 138
1.03574 -0.00926174 1.50098 81 81 84
1.18267 0.0120077 1.36909 26 31 36
1.42478 0.0683021 1.15166 124 122 118
0.434115 -0.0404756 2.04505 130 126 123
1.00471 -0.0128252 1.52953 60 62 63
-152.795 18.4281 140.334 97 111 124
-35.4292 4.09615 34.4481 68 78 90
1.33124 0.0426793 1.23562 19 21 23
1.39443 0.0593911 1.17854 149 147 145
0.930213 -0.0202224 1.59802 28 31 31
0.229063 -0.0381946 2.23455 33 34 33
1.30242 0.0358655 1.26165 28 31 32
0.93668 -0.0196736 1.59299 39 43 44
1.32132 0.0402948 1.24452 71 76 81
1.43175 0.0705064 1.14446 121 121 124
1.43599 0.0718385 1.1405 92 91 84
1.33318 0.0431829 1.23369 97 97 99
-0.684212 0.00653455 3.07788 11 12 13
0.395762 -0.0399074 2.09108 155 148 143
1.35836 0.0495925 1.21072 116 108 96
0.353379 -0.0397215 2.13148 33 36 39
0.459562 -0.0398052 2.03534 76 78 79
0.308567 -0.0392144 2.17328 32 33 33
1.46407 0.0809169 1.11507 188 191 191
0.950139 -0.0183649 1.58345 118 124 131
-656613 81812 597409 82 93 101
1.34767 0.0468361 1.22022 39 44 45
1.33611 0.043924 1.23076 66 72 78
0.513908 -0.0392839 1.9886 28 32 35
0.442806 -0.0397219 2.05485 99 100 100
1.30236 0.0358506 1.26171 106 105 98
1.36946 0.0525535 1.2002 122 117 106
0.408199 -0.0397356 2.08754 30 32 31
1.37458 0.0539635 1.19538 114 111 104
1.36374 0.0510362 1.20532 120 119 119
0.60222 -0.037822 1.90774 161 154 149
1.30233 0.0358445 1.26173 112 112 111
1.4563 0.0784182 1.1212 27 32 34
1.43444 0.0714823 1.14057 178 176 172
-631428 79003.1 578025 76 88 98
1.35863 0.0496919 1.20994 44 52 57
0.992436 -0.0141672 1.54659 51 61 72
1.38877 0.0578784 1.18236 13 13 14
1.46265 0.0805706 1.1151 41 45 46
1.30432 0.0363039 1.2599 112 111 106
1.3983 0.0606034 1.17353 125 123 118
1.30233 0.0358436 1.26173 44 48 49
0.473699 -0.0394515 2.03012 102 102 103
0.96941 -0.0165515 1.56856 50 59 70
1.4679 0.0823628 1.11008 189 187 187
1.3656 0.0515637 1.20322 56 63 68
1.30233 0.0358436 1.26173 89 90 92
-0.501261 -0.00423798 2.94284 49 56 65
1.38396 0.0566078 1.18625 158 154 143
0.631653 -0.0368479 1.88702 123 117 114
1.30636 0.0367769 1.258 92 88 77
1.30233 0.0358436 1.26173 48 50 53
0.449728 -0.0392784 2.05855 34 38 40
1.42284 0.067962 1.15036 172 167 162
0.510295 -0.0390779 2.00246 46 52 57
1.22101 0.0187918 1.33745 30 34 37
0.554934 -0.038515 1.9616 118 118 118
-601201 76054.2 556800 94 108 117
1.46722 0.0823044 1.10929 172 168 164
-10.852 1.14043 12.5363 79 84 84
-1.15552 0.0455115 3.56345 33 34 38
-0.302333 -0.0157194 2.76882 54 62 72
0.906334 -0.0223447 1.63031 35 41 47
1.30233 0.0358444 1.26173 69 68 67
1.30232 0.0358428 1.26174 102 101 101
0.446122 -0.0394385 2.066 123 127 126
1.20101 0.0150747 1.35634 94 96 97
-8.07155 0.806712 9.97732 45 39 39
1.40639 0.0630665 1.16503 78 77 70
-0.121132 -0.0251591 2.60006 121 121 124
-0.184855 -0.0218217 2.66086 140 139 142
-0.229582 -0.0195675 2.70361 51 57 66
-16.0715 1.7791 17.4325 66 70 72
1.30232 0.0358427 1.26174 114 116 118
1.36584 0.0516721 1.20247 46 54 62
-19.1251 2.15769 20.3121 45 43 44
-8.5832 0.869801 10.4835 35 36 43
-0.176921 -0.0221549 2.65714 55 62 71
0.502647 -0.0391191 2.01633 148 142 139
-16.9469 1.89057 18.3108 40 33 33
1.40699 0.0632642 1.16406 160 156 149
-0.644138 0.00640935 3.09718 67 79 95
0.513818 -0.0389254 2.00686 154 147 142
-0.51781 -0.00219021 2.97994 58 69 83
-0.704978 0.0106125 3.15499 27 29 33
1.38366 0.0565854 1.18564 100 99 95
1.30232 0.0358427 1.26174 123 124 123
-0.330768 -0.0136059 2.80465 49 59 72
1.30232 0.0358427 1.26174 31 38 44
1.46486 0.0816767 1.11015 195 194 193
-0.565242 0.00112441 3.02761 21 24 32
1.1825 0.011751 1.37451 88 93 101
1.34199 0.0454797 1.22452 184 178 171
-2.07784 0.131594 4.44525 36 33 34
0.318282 -0.0385198 2.19642 67 72 77
0.465943 -0.0392948 2.05571 86 90 95
1.1607 0.00806079 1.3952 80 86 92
-1.56405 0.0825842 3.96779 29 29 32
-0.319933 -0.0141709 2.79981 20 23 30
-1.06312 0.0387806 3.49915 26 27 31
1.19525 0.0139714 1.36273 62 66 70
1.42904 0.0700337 1.14323 47 49 44
1.17487 0.0104183 1.38203 43 52 59
0.348046 -0.0388614 2.17073 184 174 167
1.36763 0.0522127 1.20034 155 153 142
1.21653 0.0178727 1.34275 86 89 92
1.40805 0.0636726 1.16255 140 136 133
-0.485964 -0.00383957 2.9598 23 28 34
0.553269 -0.0384991 1.97545 136 127 119
-1.53015 0.0800143 3.94504 44 43 44
-0.929339 0.0283418 3.37936 20 23 28
-0.427719 -0.0075714 2.90634 27 30 36
1.30232 0.035843 1.26174 124 125 124
0.589019 -0.0378934 1.94155 63 59 55
1.30235 0.0358484 1.26171 103 107 110
1.41182 0.0648272 1.1588 202 205 201
0.897886 -0.0232848 1.64339 74 87 100
-1.81402 0.106899 4.21597 41 46 56
0.329736 -0.0386349 2.19102 56 63 72
1.14186 0.00498932 1.41369 45 53 62
-2.61921 0.187785 4.97496 51 52 54
1.05384 -0.00733996 1.49683 61 69 75
-0.764323 0.0158616 3.22965 59 69 86
0.62186 -0.0371604 1.91169 67 66 67
0.500392 -0.0390351 2.02884 32 35 34
-2.08297 0.133478 4.47436 77 87 99
-0.661404 0.00845584 3.13376 19 21 25
0.830838 -0.0279918 1.70822 37 42 45
-2.57522 0.183819 4.94209 86 97 109
1.03641 -0.0094885 1.51374 63 72 81
-0.869079 0.0241557 3.33331 18 18 19
1.45038 0.077024 1.12226 30 37 40
-12.1913 1.32445 14.0567 95 103 108
0.336753 -0.0387143 2.18769 42 46 51
0.445761 -0.039492 2.08333 35 37 38
-2.43979 0.169957 4.8196 21 26 37
1.1282 0.00280068 1.42729 29 33 35
0.535521 -0.0387294 1.99815 68 66 61
-0.979936 0.0329142 3.44267 17 15 17
1.30328 0.0360657 1.26083 23 27 30
0.582544 -0.0381149 1.9537 112 104 98
-2.00019 0.126116 4.41296 48 51 56
-3.21178 0.252491 5.55892 47 50 57
-1.12377 0.0451484 3.58326 21 17 18
0.54956 -0.0386293 1.98636 147 141 135
0.600257 -0.0377759 1.93704 176 166 157
0.647877 -0.0364655 1.89112 153 147 143
1.18119 0.011417 1.37727 128 129 130
0.664444 -0.0360867 1.87622 113 108 106
0.508309 -0.0390949 2.02871 92 91 86
-0.759303 0.016084 3.24214 29 29 34
-1.7678 0.104181 4.20381 29 29 34
1.30235 0.0358478 1.26172 19 23 25
1.13968 0.00452568 1.41734 89 91 94
-0.261502 -0.0168579 2.77062 61 73 90
0.573534 -0.0382965 1.96626 136 133 129
1.08742 -0.00315553 1.46755 107 110 113
0.606441 -0.0377051 1.93524 180 173 165
-22.0867 2.56204 23.6129 42 52 69
-3.35407 0.269907 5.72613 47 53 65
1.34804 0.0471271 1.21797 140 134 133
0.813071 -0.0293163 1.73039 73 78 86
-0.0890981 -0.0256603 2.60745 70 82 99
0.501499 -0.039261 2.03942 56 58 59
-8.57568 0.883414 10.7316 51 63 82
-2.04078 0.131291 4.47861 84 95 107
-0.309514 -0.0140755 2.82009 23 24 28
-1.3933 0.0695568 3.85973 33 34 38
-1.47211 0.0765817 3.93628 25 22 25
-0.214794 -0.0193113 2.73134 31 32 37
-0.335763 -0.0124749 2.84935 77 89 104
1.07595 -0.00476601 1.47955 49 55 62
0.766571 -0.0316945 1.77657 34 38 42
-0.303277 -0.014398 2.81977 37 43 53
1.42908 0.0704338 1.14057 126 135 143
-1.56219 0.0853512 4.03221 48 51 59
0.639967 -0.0369995 1.90696 79 77 75
0.034365 -0.030917 2.49506 27 32 39
0.979572 -0.0160623 1.57251 62 70 78
1.34698 0.0468904 1.21871 113 115 115
0.452887 -0.0395487 2.09167 26 30 31
1.30237 0.0358531 1.26169 30 35 39
1.41533 0.06617 1.15359 112 105 58
0.780936 -0.0312878 1.76424 48 57 66
1.40964 0.0644556 1.15902 74 75 74
-2.57955 0.187674 5.01286 47 47 52
-2.27223 0.155345 4.71904 54 57 63
-5.54007 0.522754 7.85358 68 75 82
0.800617 -0.0302156 1.74577 156 153 153
0.536802 -0.0390406 2.01203 69 70 66
-0.848881 0.023676 3.3534 46 47 52
0.645905 -0.0369463 1.90396 156 153 147
1.30245 0.0358724 1.26161 111 113 117
0.935274 -0.0204939 1.6152 22 24 24
0.475001 -0.0395697 2.07357 95 98 99
-2.29035 0.157775 4.74763 88 99 109
0.502273 -0.0394722 2.04749 24 28 27
1.42001 0.0677005 1.14862 64 62 58
1.03355 -0.0102569 1.5222 49 57 66
-1.52638 0.0827016 4.01406 42 42 45
-1.12315 0.046393 3.62495 42 42 45
-0.744171 0.0155823 3.25829 83 93 104
1.38429 0.0571371 1.1824 136 127 110
-0.49888 -0.00192543 3.0224 48 50 56
0.516248 -0.0394285 2.03599 111 113 115
-5.12514 0.475495 7.49238 92 106 116
0.504409 -0.0395374 2.0478 110 115 120
-1.63315 0.0927181 4.12291 88 100 112
-1.56019 0.0859909 4.0539 85 96 109
0.770045 -0.0320922 1.7786 146 146 149
-1.47925 0.0783916 3.97664 80 91 103
1.41152 0.0651401 1.15644 57 64 68
0.20713 -0.0364287 2.33774 81 91 101
-5.23719 0.489402 7.61147 53 59 62
-0.979405 0.0342536 3.49449 46 47 52
-11.9472 1.31221 14.1562 53 47 49
1.34778 0.0471698 1.21747 52 59 65
1.30238 0.0358559 1.26168 103 106 113
0.985092 -0.0157533 1.57048 62 73 83
0.484391 -0.0397058 2.06966 18 22 26
-1.45355 0.0763215 3.95694 39 41 45
-0.685236 0.0114969 3.21073 33 34 39
1.41321 0.0657134 1.15456 128 148 167
0.512264 -0.0395828 2.04287 33 37 38
-2.90173 0.223546 5.36357 54 59 64
-0.482211 -0.00304502 3.01451 35 38 45
0.609824 -0.0381855 1.94672 21 24 27
-0.329698 -0.0127116 2.86685 34 37 44
-0.377475 -0.009841 2.91376 35 36 43
1.35844 0.0500307 1.20697 155 145 135
1.30233 0.0358441 1.26173 59 69 79
0.540242 -0.0395639 2.0163 176 171 168
0.780319 -0.0316669 1.77053 39 46 53
1.30236 0.0358513 1.2617 128 130 132
1.37208 0.0537903 1.19361 120 115 109
0.489577 -0.0398901 2.06799 46 55 66
1.30241 0.0358619 1.26166 117 119 124
-0.411805 -0.00765979 2.95042 84 96 109
1.30237 0.0358544 1.26169 37 43 48
0.506263 -0.0397761 2.05185 165 167 172
-0.0117912 -0.029251 2.55833 45 48 54
0.0723802 -0.0325276 2.47578 40 43 49
1.30252 0.0358883 1.26155 57 59 60
0.148822 -0.0350915 2.40084 46 49 54
1.34604 0.0467531 1.21892 40 48 52
-0.21578 -0.0193445 2.75974 83 94 107
-0.621495 0.00685946 3.158 43 47 56
-0.552662 0.00191102 3.09075 47 49 57
-1.22399 0.0555929 3.74784 50 49 49
0.00129096 -0.0297878 2.54762 83 96 109
-0.338311 -0.0122076 2.8821 42 47 57
-0.601913 0.00529449 3.14227 84 96 109
0.530101 -0.0396801 2.03026 153 152 154
-0.0984618 -0.0253244 2.64765 54 61 72
-0.0694797 -0.0267428 2.61911 52 58 69
-0.468212 -0.00398668 3.0119 84 97 110
0.103098 -0.0337616 2.44989 50 56 64
1.3529 0.0486003 1.21206 152 148 143
-0.269418 -0.0163394 2.81787 87 101 116
-0.214304 -0.0194396 2.76391 86 100 115
0.613228 -0.0383746 1.94871 117 122 128
0.644553 -0.0376315 1.91745 117 118 121
-0.176571 -0.0215342 2.72689 84 98 113
-0.0908348 -0.0257979 2.64292 89 104 118
-1.2261 0.0558767 3.75931 46 46 45
-433468 57987.8 425435 76 89 100
-0.316556 -0.013546 2.86674 50 55 62
1.32732 0.0419595 1.23714 23 26 28
1.35947 0.0504039 1.20544 62 61 57
-1.59144 0.0898509 4.12151 56 61 65
-0.598508 0.00529443 3.14625 83 96 108
-0.453278 -0.00501911 3.00402 86 101 113
0.658977 -0.0371843 1.90499 182 177 175
1.30239 0.0358594 1.26167 113 111 110
0.565362 -0.0394786 2.00012 31 35 40
1.17469 0.00974938 1.38805 39 42 44
1.34774 0.0472918 1.21677 35 42 50
-1.21856 0.0554182 3.77106 54 60 63
0.566383 -0.0397594 2.00213 140 139 141
-18.5522 2.16396 20.9088 14 20 27
-444342 59873.9 440244 59 68 75
1.30234 0.0358455 1.26172 34 39 42
1.30235 0.0358496 1.26171 109 107 105
0.582995 -0.039529 1.98731 17 20 23
0.645976 -0.0381073 1.92272 80 80 82
1.32736 0.0420221 1.23681 49 52 55
1.3046 0.0363918 1.25947 151 148 146
0.603218 -0.0391702 1.96868 188 181 177
1.17755 0.0101 1.3863 84 86 86
0.533992 -0.0404523 2.03915 20 23 26
0.565369 -0.0401462 2.00832 116 118 123
0.620358 -0.0387615 1.95227 66 67 70
-0.305214 -0.0147348 2.87981 34 37 38
1.30235 0.035848 1.26171 24 26 28
-0.898683 0.0284069 3.47348 86 100 113
0.165568 -0.0365196 2.4089 29 30 29
-1.81881 0.112102 4.38979 39 42 42
-1.01745 0.0380035 3.59335 84 97 110
-439926 59451.3 439583 45 53 59
-0.698817 0.0123884 3.27593 75 89 107
1.31998 0.0401875 1.24402 84 79 70
1.30236 0.0358513 1.2617 120 118 118
-0.790347 0.0193935 3.36805 81 95 108
-0.455214 -0.00533999 3.03318 33 35 34
1.33301 0.0435134 1.23093 159 158 158
0.5357 -0.0407593 2.04196 42 46 49
-0.959221 0.0328911 3.54144 44 49 53
1.30309 0.036028 1.26096 75 74 75
1.30238 0.0358552 1.26168 130 124 120
-0.284908 -0.0161248 2.8664 33 38 43
0.551924 -0.0406606 2.02611 145 144 144
-1.05302 0.0411624 3.63668 80 94 106
0.590936 -0.0399617 1.9861 143 142 142
-0.51314 -0.00133244 3.09615 75 87 98
-1.79678 0.110261 4.38014 81 94 105
-0.926293 0.0302783 3.51129 85 99 111
1.30238 0.035857 1.26168 164 157 151
0.515902 -0.0410849 2.06413 156 154 152
-440050 59609.6 442130 48 57 65
-1.04025 0.0398602 3.62929 29 32 33
1.30239 0.0358595 1.26167 105 97 85
-1.41224 0.0730332 4.00367 48 54 57
1.33972 0.04531 1.22403 180 175 170
-1.77131 0.107811 4.36566 40 42 41
-0.651653 0.00823132 3.24272 40 44 48
1.30647 0.0368616 1.25754 107 103 99
-0.778458 0.0179713 3.37201 40 46 53
1.30235 0.0358495 1.26171 113 114 116
1.30236 0.0358513 1.2617 71 69 68
-1.22999 0.0562365 3.83445 88 103 118
1.30241 0.0358637 1.26165 150 145 140
1.30359 0.0361529 1.26044 153 155 157
1.30238 0.0358556 1.26168 156 151 148
1.3024 0.0358619 1.26165 79 76 70
0.979164 -0.0180619 1.59019 39 42 46
1.30237 0.0358534 1.26169 30 35 39
-4.71969 0.435261 7.39071 45 56 72
1.30238 0.0358554 1.26168 42 48 53
-4.46982 0.406014 7.14902 122 123 129
-3.5698 0.301134 6.23149 126 129 138
1.30236 0.0358502 1.2617 110 109 109
1.30238 0.0358563 1.26168 39 44 48
1.30235 0.035848 1.26171 72 80 89
1.30239 0.0358593 1.26167 166 162 161
-26.5387 3.26281 30.0974 44 49 56
1.30239 0.0358589 1.26167 177 174 171
-23.8535 2.91136 27.3403 152 151 155
-0.544515 -0.00139924 3.18073 158 168 171
-4.38281 0.396156 7.101 57 69 82
-6.35116 0.638823 9.17743 177 175 178
-7.22944 0.748358 10.0923 163 156 146
-7.65042 0.803298 10.5518 47 55 63
1.30239 0.035858 1.26167 181 177 177
-8.60158 0.925682 11.5695 49 54 46
-9.01231 0.982366 12.109 88 87 86
-10.6186 1.19229 13.859 114 111 110
-11.9787 1.37093 15.3346 113 114 120
-10.0866 1.12469 13.3358 124 124 124
-11.2344 1.27513 14.5901 20 21 23
-18.7134 2.25923 22.5848 19 23 28
-11.3479 1.29229 14.7806 134 134 137
-9.17918 1.00887 12.4836 92 89 83
-11.3701 1.30112 15.052 36 39 45
-20.4609 2.50717 25.0658 175 169 164
-40.3325 5.20266 47.2139 45 52 61
-2.94364 0.144918 4.33321 110 108 108
-2.85976 0.140221 4.29977 80 82 85
-29.302 3.20143 23.6917 67 73 73
-1.63038 0.0362919 3.43562 97 92 91
-1.58973 0.0347315 3.41465 94 89 89
-1.88486 0.0610954 3.65029 111 108 108
-1.88809 0.0624939 3.66045 38 40 41
-1.94443 0.0672997 3.70296 110 110 112
-1.52581 0.0329849 3.38746 50 48 50
-1.57373 0.0368749 3.42478 140 134 131
-9.51663 0.869932 9.52108 143 143 142
-11.1114 1.05236 10.747 112 113 112
-9.97206 0.923596 9.89234 33 35 35
-11.1042 1.0537 10.7689 28 30 30
-13.7566 1.36629 12.8684 21 24 27
-1.43841 0.0324785 3.3598 32 32 32
-9.8876 0.921191 9.90045 33 37 38
-9.23874 0.85388 9.482 20 23 23
-10.2968 0.975285 10.314 22 26 27
-8.54862 0.776037 8.95186 50 49 47
-8.15983 0.734028 8.66099 151 146 141
-9.28156 0.861555 9.54543 147 146 144
-9.95724 0.939035 10.0875 35 42 48
-9.9965 0.955852 10.2308 71 82 92
-1.56083 0.0540404 3.60685 110 104 104
-1.78196 0.0769997 3.83765 79 88 96
1.30918 0.0365074 1.26207 128 150 169
0.909813 -0.0236684 1.59586 91 94 97
0.211456 -0.043422 2.18382 32 37 46
1.31182 0.0371172 1.25982 35 39 43
0.368653 -0.0443339 2.05318 41 42 48
-0.084682 -0.0348767 2.44728 96 97 98
-0.0248915 -0.0365287 2.40029 144 142 141
0.619162 -0.0401136 1.84545 69 73 80
0.58286 -0.0410002 1.877 77 78 82
0.348669 -0.043718 2.07542 52 54 61
0.463727 -0.0431936 1.9789 47 50 59
-44.651 5.09698 41.2717 135 138 143
-83.3667 9.7243 74.9727 107 115 121
-60.1997 6.95532 54.8216 49 57 64
1.33703 0.0431147 1.23844 96 95 97
0.697588 -0.0367624 1.7831 81 91 105
0.379716 -0.0433425 2.05335 47 48 55
0.275129 -0.0431484 2.14358 98 107 115
0.708219 -0.0362059 1.77567 20 20 24
-44.4769 5.08901 41.3273 59 71 82
0.0551166 -0.0378869 2.34436 67 64 62
0.0347368 -0.0372419 2.36228 141 139 138
-276910 32541.7 239968 63 78 93
0.405275 -0.0427374 2.03789 80 89 98
-111930 13559.9 97926.2 59 72 87
-46.139 5.30792 42.9931 116 125 133
0.41627 -0.0420661 2.03567 33 37 44
1.30777 0.036185 1.26322 134 132 131
-628588 75056.4 551563 71 88 106
1.14568 0.00527433 1.40454 42 47 54
-671725 81530.4 590386 50 63 76
1.21197 0.0165268 1.34669 123 123 125
1.30778 0.0361878 1.26321 140 140 141
1.30782 0.0361976 1.26318 102 98 94
1.20022 0.0144261 1.35728 124 125 128
0.194652 -0.0395111 2.24366 73 73 71
1.3089 0.0364438 1.26223 39 42 42
1.18842 0.0123701 1.36782 37 44 50
1.15323 0.00647304 1.39884 116 118 122
-659411 80894.7 584778 54 67 81
1.11012 7.55926e-06 1.43697 124 123 123
1.39908 0.0594166 1.18312 75 75 76
1.30775 0.036182 1.26324 124 126 130
-102.102 12.1395 93.5734 100 114 126
1.1811 0.0110682 1.37461 103 105 108
1.41944 0.0653057 1.16497 48 51 54
1.41023 0.0626109 1.17304 124 119 112
1.14036 0.00454481 1.41078 141 140 141
1.20024 0.014456 1.3579 81 86 94
0.30084 -0.0403798 2.15964 120 119 118
0.711069 -0.0348484 1.78918 26 27 30
1.30776 0.0361828 1.26323 27 31 35
1.45048 0.0746717 1.13912 148 146 146
-209311 25480 186572 106 120 134
1.18312 0.0115556 1.3735 26 31 36
1.00439 -0.0131927 1.53296 60 62 63
-143.068 17.188 131.222 97 111 124
0.982846 -0.0154828 1.55261 46 50 53
-34.9689 4.02815 33.9691 68 78 90
0.226519 -0.0382433 2.23634 33 34 33
1.32348 0.0398456 1.24918 71 76 81
1.43477 0.0699683 1.14989 121 121 124
0.342002 -0.0398061 2.14006 39 42 45
1.46114 0.0781546 1.12779 87 89 92
0.909613 -0.0221841 1.6208 29 30 30
1.33555 0.0427529 1.23831 97 97 99
0.395576 -0.0399339 2.0938 155 148 143
0.752668 -0.0324776 1.76286 20 23 25
0.45962 -0.0398249 2.03798 76 78 79
1.46769 0.0803265 1.12142 188 191 191
0.950227 -0.0185616 1.58605 118 124 131
-624169 78816.9 567487 82 93 101
0.8096 -0.0292491 1.71238 20 22 23
1.35049 0.0464736 1.22464 39 44 45
1.37251 0.0522019 1.20473 122 117 106
1.47029 0.0812471 1.11832 159 155 148
1.30774 0.0361805 1.26324 112 112 111
-597532 75025.6 546140 76 88 98
0.960994 -0.0174739 1.57816 110 114 120
1.36176 0.0493703 1.21424 44 52 57
1.30854 0.0363623 1.26252 112 111 106
1.40178 0.0602407 1.17824 125 123 118
1.30774 0.0361798 1.26324 44 48 49
0.474583 -0.0393819 2.03292 102 102 103
1.36569 0.0504025 1.21055 45 54 60
1.47219 0.081912 1.11591 189 187 187
1.36904 0.0512902 1.20737 56 63 68
1.30774 0.0361799 1.26324 89 90 92
1.30773 0.0361772 1.26326 91 94 99
1.38759 0.056321 1.19059 158 154 143
-0.392122 -0.0107806 2.84948 132 130 133
1.3086 0.0363773 1.26246 92 88 77
1.30774 0.0361799 1.26324 48 50 53
0.450703 -0.0390258 2.0617 34 38 40
0.511823 -0.0389616 2.0053 46 52 57
0.556472 -0.0383861 1.96438 118 118 118
1.4721 0.0819859 1.11464 172 168 164
1.30774 0.0361807 1.26324 69 68 67
1.30774 0.0361793 1.26325 102 101 101
0.447867 -0.039285 2.06887 123 127 126
1.20371 0.0149995 1.35926 94 96 97
-8.0551 0.797299 9.89994 45 39 39
-0.262023 -0.0176718 2.7392 54 62 72
-0.226745 -0.0195926 2.70631 51 57 66
-15.9621 1.75099 17.2098 66 70 72
0.458732 -0.0392763 2.06154 51 52 54
1.30774 0.0361793 1.26325 114 116 118
1.36985 0.0514998 1.20623 46 54 62
-8.55375 0.858114 10.3947 35 36 43
-0.173952 -0.0221658 2.65984 55 62 71
0.48587 -0.0390047 2.03693 82 81 82
-0.64151 0.00615539 3.09827 67 79 95
0.515815 -0.0387117 2.00977 154 147 142
-0.515038 -0.00242412 2.98116 58 69 83
-0.0514467 -0.0277045 2.54729 137 137 139
-0.328807 -0.013495 2.80723 49 59 72
1.47028 0.0814925 1.11498 195 194 193
-0.562749 0.000904823 3.02858 21 24 32
1.34601 0.0454024 1.2279 184 178 171
-2.07725 0.130117 4.43644 36 33 34
0.468327 -0.0390987 2.05857 86 90 95
1.16354 0.00810079 1.39754 80 86 92
-1.56255 0.0813802 3.96153 29 29 32
-0.318195 -0.0139928 2.80235 20 23 30
-1.0596 0.037958 3.49689 26 27 31
-22.9263 2.61302 23.8707 36 43 57
1.19834 0.0140084 1.36521 62 66 70
-0.70954 0.0115724 3.17138 20 20 25
0.659145 -0.0359343 1.87796 171 166 163
-1.52824 0.0788167 3.93887 44 43 44
-0.927462 0.0278219 3.37769 20 23 28
-0.424605 -0.00789538 2.90668 27 30 36
-1.81269 0.10542 4.20722 41 46 56
0.332988 -0.0384205 2.19427 56 63 72
1.14481 0.00508835 1.41565 45 53 62
-2.61735 0.18536 4.95919 51 52 54
0.597957 -0.0375735 1.93919 131 124 119
-0.762134 0.0154595 3.22869 59 69 86
-0.659191 0.00813973 3.13329 19 21 25
-2.57291 0.181532 4.92754 86 97 109
-0.867372 0.0236913 3.33146 18 18 19
-2.43643 0.167562 4.80486 21 26 37
-0.978221 0.0323003 3.4397 17 15 17
-1.99918 0.124438 4.40214 48 51 56
-3.20975 0.249238 5.53633 47 50 57
-1.1219 0.0443115 3.5788 21 17 18
0.650388 -0.0361438 1.89364 153 147 143
0.667098 -0.0357953 1.87857 113 108 106
-0.757084 0.0156151 3.23998 29 29 34
1.30775 0.0361828 1.26323 19 23 25
-0.258834 -0.0169135 2.77097 61 73 90
1.09059 -0.00290362 1.46839 107 110 113
0.609477 -0.0373916 1.93789 180 173 165
-21.7247 2.49112 23.1221 42 52 69
-3.35231 0.265747 5.6966 47 53 65
1.35324 0.0472895 1.2204 140 134 133
0.814485 -0.0289918 1.72948 73 78 86
-0.0860609 -0.0256984 2.60802 70 82 99
0.505152 -0.0389312 2.04266 56 58 59
-1.47096 0.075332 3.92781 25 22 25
0.570542 -0.0382054 1.97941 102 94 89
-0.211869 -0.0194014 2.73128 31 32 37
-0.333036 -0.0126476 2.84858 77 89 104
-0.300616 -0.0145465 2.81897 37 43 53
0.643123 -0.0366518 1.90938 79 77 75
0.98235 -0.0157054 1.57193 62 70 78
1.3525 0.04713 1.22082 113 115 115
0.456998 -0.0392054 2.09507 26 30 31
-2.58061 0.185047 4.99305 47 47 52
-2.2714 0.152809 4.70101 54 57 63
0.540785 -0.0386564 2.0154 69 70 66
-0.84729 0.0230787 3.34864 46 47 52
0.479155 -0.0391902 2.07698 95 98 99
-2.28818 0.154789 4.72693 88 99 109
0.50644 -0.0391027 2.05083 24 28 27
-1.52001 0.0799512 3.99784 42 42 45
-1.1217 0.0453697 3.61705 42 42 45
1.35304 0.0472991 1.22004 49 55 59
0.642628 -0.0368924 1.91528 150 149 148
-0.49666 -0.00228486 3.01902 48 50 56
0.520458 -0.0390538 2.03924 111 113 115
-0.976543 0.03307 3.48609 46 47 52
-11.8229 1.28094 13.9577 53 47 49
1.35386 0.0475359 1.21908 52 59 65
1.30779 0.036191 1.2632 103 106 113
0.988433 -0.0152314 1.56932 62 73 83
-1.45166 0.0745916 3.94417 39 41 45
-0.682195 0.010706 3.20483 33 34 39
0.516494 -0.0391857 2.046 33 37 38
-0.479752 -0.00346433 3.01037 35 38 45
-1.22431 0.054116 3.72961 56 57 59
1.36492 0.0504551 1.20842 155 145 135
0.713996 -0.0345782 1.84213 51 54 56
1.20574 0.0151079 1.36121 59 69 79
0.544336 -0.0392609 2.0184 176 171 168
1.30777 0.0361867 1.26321 128 130 132
1.37882 0.0542312 1.19511 120 115 109
1.30782 0.0361975 1.26317 117 119 124
1.30778 0.0361897 1.2632 37 43 48
0.510545 -0.0393778 2.05475 165 167 172
1.30795 0.0362285 1.26304 57 59 60
0.151514 -0.0348452 2.40052 46 49 54
-0.299607 -0.014578 2.84074 82 93 106
1.35244 0.0471984 1.2202 40 48 52
-0.213088 -0.019493 2.75699 83 94 107
-0.550253 0.00140899 3.08557 47 49 57
-0.336029 -0.0124009 2.87857 42 47 57
0.534214 -0.0392628 2.03278 153 152 154
1.35963 0.0491042 1.21316 152 148 143
-0.211344 -0.0196761 2.76032 86 100 115
0.617175 -0.0379108 1.95119 117 122 128
0.648493 -0.0371837 1.9198 117 118 121
-0.611075 0.00571322 3.15049 42 47 54
-0.0884037 -0.0257393 2.64059 89 104 118
-553955 72408 539318 76 89 100
1.33399 0.0425239 1.23787 23 26 28
1.36643 0.0509402 1.20644 62 61 57
-0.450542 -0.00556003 2.99792 86 101 113
1.37161 0.0523527 1.20139 161 156 151
1.30781 0.0361955 1.26318 113 111 110
-0.616375 0.00604762 3.16239 42 48 56
0.569522 -0.0390123 2.00251 31 35 40
1.18032 0.0104505 1.38728 39 42 44
1.30774 0.0361804 1.26324 21 23 27
1.37174 0.0524673 1.2009 158 156 154
-96.0141 11.9367 96.7622 61 66 75
1.30775 0.0361813 1.26324 34 39 42
1.30777 0.0361852 1.26322 109 107 105
1.33478 0.0427618 1.23681 49 52 55
1.30938 0.0365688 1.26164 115 112 109
1.30776 0.0361848 1.26322 47 48 49
0.569353 -0.0395318 2.01019 116 118 123
1.34576 0.0455812 1.22594 140 137 137
-0.30309 -0.0149951 2.87256 34 37 38
1.30776 0.0361837 1.26323 24 26 28
1.33874 0.0437922 1.23275 88 84 80
-502726 66304.3 497600 45 53 59
1.3277 0.0410226 1.24359 84 79 70
1.30867 0.0363989 1.26233 75 74 75
-0.925522 0.0289834 3.4957 85 99 111
1.3078 0.0361933 1.26319 164 157 151
1.30781 0.0361963 1.26317 105 97 85
1.31553 0.0380641 1.2555 107 103 99
-0.777214 0.0167882 3.35643 40 46 53
-267311 34947.5 266996 38 44 49
1.30777 0.0361853 1.26322 113 114 116
1.30777 0.0361871 1.26321 71 69 68
1.30783 0.0362016 1.26315 150 145 140
1.33537 0.043001 1.23574 193 191 189
1.30782 0.0361995 1.26316 79 76 70
0.986512 -0.0165677 1.58192 39 42 46
1.30778 0.0361895 1.2632 30 35 39
1.30779 0.0361917 1.26319 42 48 53
1.3078 0.0361929 1.26319 39 44 48
1.30781 0.0361965 1.26317 166 162 161
-9.08342 0.959115 11.9885 88 87 86
-10.7169 1.16595 13.7396 114 111 110
-12.0923 1.3402 15.2051 113 114 120
-10.1724 1.09768 13.2112 124 124 124
-11.3418 1.24542 14.4642 20 21 23
-19.0356 2.22361 22.5224 19 23 28
-272063 36917.7 290466 35 41 50
-34.3822 4.23393 39.639 93 97 102
-29.5232 3.60451 34.5817 110 112 116
-41.008 5.09617 47.0082 61 69 77
-27.2959 3.31493 32.2292 75 75 79
-202762 27309.1 220630 158 167 168
-2.89068 0.146475 4.19802 110 108 108
-2.81385 0.141727 4.17247 80 82 85
-1.63618 0.0378369 3.37836 97 92 91
-1.59656 0.0362622 3.35932 94 89 89
-1.88473 0.0628703 3.58357 111 108 108
-1.88752 0.0642002 3.59339 38 40 41
-1.94257 0.0690787 3.63366 110 110 112
-1.53376 0.0345312 3.33407 50 48 50
-1.58073 0.0384638 3.3697 140 134 131
-8.8567 0.816107 8.79461 39 41 43
-9.01835 0.834777 8.93892 143 143 142
-10.4293 0.999926 9.99695 112 113 112
-12.6769 1.27451 11.7517 21 24 27
-8.76754 0.81855 8.91081 20 23 23
-9.70079 0.92722 9.62641 22 26 27
-8.80961 0.826049 8.97007 147 146 144
-9.40229 0.894848 9.4336 35 42 48
-9.3398 0.899485 9.46911 71 82 92
0.202078 -0.0440626 2.18837 32 37 46
0.360317 -0.0450607 2.05842 41 42 48
0.326565 -0.0447184 2.08832 91 97 102
-0.0324754 -0.0368643 2.40611 144 142 141
0.340899 -0.0443636 2.08044 52 54 61
0.456991 -0.0439188 1.98456 47 50 59
0.693072 -0.0376007 1.78988 81 91 105
0.372721 -0.0439681 2.05835 47 48 55
0.267058 -0.0435725 2.14844 98 107 115
0.704099 -0.0370422 1.78225 20 20 24
0.0493387 -0.0382486 2.35009 67 64 62
0.779596 -0.032837 1.72066 29 31 36
-274520 32400 238149 63 78 93
0.399186 -0.0433157 2.0426 80 89 98
-94583.4 11452.3 82804.2 59 72 87
-45.2238 5.18374 42.1737 116 125 133
-626702 75960.8 550509 71 88 106
1.11786 0.000203596 1.4383 44 51 58
-36.3724 4.14733 34.7423 61 73 84
0.335571 -0.0409239 2.13377 59 59 58
-173608 21152.6 154693 106 120 134
1.42357 0.0643681 1.17323 148 141 133
1.45369 0.0732942 1.14932 121 126 131
1.46404 0.0765894 1.14012 198 195 194
-127.233 15.1881 116.664 97 111 124
-33.9648 3.88578 32.9726 68 78 90
1.47189 0.0790568 1.13088 72 73 73
0.409985 -0.0397021 2.09515 30 32 31
1.47263 0.0793027 1.12973 41 45 46
1.47823 0.0811266 1.12469 189 187 187
0.549415 -0.0385904 1.97321 103 104 107
0.909454 -0.0224875 1.63505 35 41 47
0.515986 -0.0387866 2.01265 142 140 139
-8.47556 0.840229 10.2617 35 36 43
-2.61104 0.182049 4.93702 51 52 54
0.834728 -0.0275993 1.70993 37 42 45
-2.56888 0.178565 4.90635 86 97 109
-3.20196 0.244629 5.50126 47 50 57
1.3159 0.0364961 1.26681 19 23 25
-1.37456 0.0656683 3.81872 83 88 96
-21.1618 2.39251 22.4041 42 52 69
1.36083 0.0473301 1.22528 140 134 133
-2.02603 0.124542 4.43654 84 95 107
-1.38792 0.0666345 3.84011 33 34 38
1.36052 0.0472714 1.2253 113 115 115
0.462824 -0.0388172 2.09895 26 30 31
-2.57243 0.180776 4.96078 47 47 52
0.654469 -0.0360994 1.90955 156 153 147
0.485174 -0.0387663 2.08073 95 98 99
0.512495 -0.0386823 2.05448 24 28 27
0.994375 -0.0146551 1.56964 62 73 83
0.495059 -0.0389301 2.07582 18 22 26
-0.207426 -0.0193229 2.74824 39 44 53
1.37408 0.0508143 1.21213 155 145 135
0.550439 -0.0387756 2.02108 176 171 168
1.31592 0.0365005 1.26679 128 130 132
1.31596 0.0365115 1.26675 117 119 124
1.31593 0.0365035 1.26678 37 43 48
1.31612 0.0365475 1.2666 57 59 60
-27.4026 3.18647 28.8014 100 113 126
1.36918 0.0495729 1.21641 152 148 143
0.623513 -0.0373377 1.95365 117 122 128
1.34357 0.0430846 1.24061 23 26 28
1.37628 0.0514551 1.20955 62 61 57
1.3816 0.0528816 1.20448 161 156 151
0.576067 -0.0384097 2.00465 31 35 40
1.18889 0.0112149 1.38811 39 42 44
1.19914 0.0129532 1.37832 92 92 92
1.31587 0.0364915 1.26683 21 23 27
-212148 27747.6 205793 59 68 75
1.31589 0.0364955 1.26681 34 39 42
1.3159 0.0364981 1.2668 105 102 101
1.31591 0.0364995 1.2668 109 107 105
1.34525 0.0435303 1.23871 49 52 55
1.31591 0.0364991 1.2668 47 48 49
-201085 26287.8 196369 45 53 59
1.31594 0.0365063 1.26677 130 124 120
-120054 15394.7 118196 38 44 49
1.31591 0.0364997 1.2668 113 114 116
1.31592 0.0365017 1.26679 71 69 68
1.31597 0.0365139 1.26674 155 151 149
1.31595 0.036509 1.26676 39 44 48
-9.01628 0.921784 11.6979 88 87 86
-10.6466 1.12143 13.4101 114 111 110
-11.9963 1.28603 14.8173 113 114 120
-10.1049 1.0546 12.894 124 124 124
-34.5253 4.08956 38.8894 93 97 102
-146506 19180.1 154951 50 57 66
-1.57976 0.0369555 3.2917 94 89 89
-1.85758 0.06328 3.50319 111 108 108
-1.86014 0.0646136 3.51241 38 40 41
-1.91283 0.0693816 3.54992 110 110 112
-1.51762 0.0350469 3.26749 50 48 50
-8.31013 0.775394 8.22142 39 41 43
-8.21711 0.775014 8.31844 20 23 23
-9.03973 0.872535 8.93625 22 26 27
-8.76586 0.842369 8.7609 35 42 48
0.194378 -0.0446082 2.18794 32 37 46
0.319374 -0.0452755 2.08867 91 97 102
-0.0387117 -0.037219 2.40689 144 142 141
0.450687 -0.0445014 1.98575 47 50 59
-76.9259 8.90698 69.4103 107 115 121
-56.8038 6.51453 51.8972 49 57 64
1.33664 0.0404822 1.25522 96 95 97
0.366212 -0.044463 2.05886 47 48 55
0.69954 -0.0376899 1.78485 20 20 24
0.393201 -0.0437644 2.04302 80 89 98
-55504.7 6703.59 48635.9 59 72 87
-92216.3 11246.2 82096 106 120 134
1.36902 0.0483369 1.22563 44 52 57
1.21081 0.0147469 1.36583 84 89 93
1.31962 0.0365003 1.26914 89 90 92
-0.389587 -0.0113432 2.8534 132 130 133
1.31962 0.0365019 1.26914 69 68 67
1.21011 0.0146312 1.36758 94 96 97
-0.259196 -0.0180179 2.74283 54 62 72
0.67221 -0.0351645 1.8832 113 108 106
-0.0822755 -0.025917 2.606 70 82 99
0.64911 -0.0358257 1.91351 79 77 75
0.516155 -0.03828 2.05568 110 115 120
-0.677152 0.00855654 3.18359 33 34 39
1.31965 0.0365067 1.26912 128 130 132
1.31966 0.0365101 1.2691 37 43 48
1.19389 0.0118764 1.38686 39 42 44
1.31961 0.0364979 1.26915 21 23 27
1.31964 0.0365043 1.26912 105 102 101
1.19845 0.0125994 1.38355 84 86 86
-38.4817 4.40871 42.0707 61 69 77
831224 -130563 -596534 80 82 85
-1.5151 0.0564108 3.09957 94 89 89
-1.72145 0.0839472 3.23942 111 108 108
-1.7173 0.0849571 3.2431 38 40 41
-1.757 0.0898891 3.26766 110 110 112
-1.44987 0.0535691 3.07659 50 48 50
833003 -125807 -599396 140 134 131
0.380649 -0.0599676 2.09983 47 50 59
1.38919 0.0177235 1.37017 96 95 97
0.296056 -0.0578847 2.16476 47 48 55
0.651053 -0.0575829 1.90834 20 20 24
0.126661 -0.0492693 2.34018 73 73 71
0.250374 -0.0511329 2.25491 120 119 118
0.750637 -0.0484025 1.86023 20 23 25
0.398453 -0.0496099 2.16798 30 32 31
0.471569 -0.0496665 2.11233 102 102 103
0.552856 -0.0497538 2.04841 103 104 107
-0.425281 -0.0119798 2.86818 132 130 133
0.520831 -0.0491895 2.07926 46 52 57
0.491473 -0.0475792 2.11716 86 90 95
0.594735 -0.0463465 2.04077 147 141 135
0.702965 -0.0440641 1.9521 79 77 75
0.510518 -0.0451453 2.12627 26 30 31
0.600969 -0.044955 2.04951 69 70 66
1.31776 0.0051713 1.42766 21 23 27
1.29687 0.00196387 1.44502 84 86 86
-1.68203 0.0889848 3.16234 111 108 108
-1.67946 0.0900912 3.16644 38 40 41
-1.72068 0.0949374 3.1923 110 110 112
-1.40229 0.0592265 2.99098 50 48 50
0.127885 -0.0444739 2.20805 32 37 46
-0.178167 -0.0321122 2.46924 96 97 98
-0.114074 -0.0344896 2.42504 144 142 141
0.366854 -0.0476738 2.0383 36 37 43
0.396039 -0.0476773 2.01783 47 50 59
0.311212 -0.0461828 2.08383 47 48 55
0.134088 -0.0392326 2.26808 73 73 71
0.251676 -0.0408354 2.18503 120 119 118
0.534232 -0.0395362 1.98824 103 104 107
0.500172 -0.0392375 2.021 46 52 57
0.561101 -0.0371695 1.99185 147 141 135
0.664291 -0.0350272 1.90494 79 77 75
0.470321 -0.0367129 2.08405 26 30 31
563778 -67745.3 -443955 50 57 66
822470 -126130 -590818 80 82 85
-1.70594 0.0897699 3.19665 38 40 41
-1.41951 0.0586076 3.01254 50 48 50
0.134966 -0.0441611 2.20437 32 37 46
-0.104584 -0.034845 2.42405 144 142 141
0.316548 -0.0454625 2.07857 47 48 55
0.662104 -0.0425815 1.82046 20 20 24
0.139838 -0.0390703 2.26491 73 73 71
0.54614 -0.0380463 1.97702 118 118 118
0.461751 -0.0376861 2.0609 86 90 95
0.556297 -0.0363573 1.9886 147 141 135
0.657966 -0.0341367 1.90115 79 77 75
1.33634 0.0283708 1.31316 84 86 86
0.383472 -0.0459206 2.02694 36 37 43
0.412107 -0.0457888 2.00568 47 50 59
0.326331 -0.0447779 2.07439 47 48 55
0.148464 -0.0385293 2.26501 73 73 71
1.21295 0.00723255 1.38306 94 96 97
0.474327 -0.0369931 2.04297 82 81 82
0.650632 -0.0333537 1.90046 79 77 75
0.159111 -0.0438045 2.19978 32 37 46
-0.0748757 -0.0352066 2.42508 144 142 141
1.45753 0.0626185 1.1954 186 182 180
0.494991 -0.036659 2.01277 46 52 57
0.454624 -0.0360879 2.05969 86 90 95
0.642989 -0.0324738 1.89856 79 77 75
-2.69539 0.16976 3.89011 80 82 85
0.16549 -0.0431001 2.19838 32 37 46
-0.129704 -0.0324956 2.4725 96 97 98
-0.0678622 -0.0343972 2.42494 144 142 141
0.0150907 -0.0359949 2.36286 144 139 136
0.26764 -0.0380537 2.17565 120 119 118
0.426918 -0.0353941 2.06576 34 38 40
0.42467 -0.0352646 2.07201 123 127 126
0.465274 -0.0350125 2.0393 82 81 82
0.161098 -0.0399662 2.21073 32 37 46
-0.143866 -0.0268915 2.49227 96 97 98
-0.081714 -0.0288622 2.44398 144 142 141
0.00102637 -0.0304797 2.38112 144 139 136
-0.000641426 -0.0300249 2.38545 67 64 62
0.474422 -0.030216 2.02355 46 52 57
0.406687 -0.0293816 2.08636 123 127 126
-45.6095 5.72423 42.1328 158 167 168
-7.24649 0.989635 8.47396 116 125 133
-7.09722 1.0025 8.42494 54 67 81
-6.96016 0.9816 8.3817 106 120 134
-6.8248 0.959816 8.33819 97 111 124
-8.93793 1.16127 8.93054 121 121 124
-8.93777 1.1612 8.93046 107 109 116
-6.6817 0.969171 8.28695 82 93 101
-6.57896 0.95919 8.2524 76 88 98
-8.88729 1.1456 8.91351 38 44 51
-6.07605 0.568298 8.06542 77 89 104
-5.43333 0.647696 7.81449 63 66 68
-5.5417 0.574966 7.86816 80 91 103
-5.46004 0.774967 7.84147 53 47 49
-5.35446 0.626823 7.78156 54 59 64
-5.63903 0.514027 7.90118 43 47 56
-5.54232 0.492409 7.85946 83 96 108
-5.59332 0.485094 7.87596 86 101 113
-5.61741 0.482291 7.88385 91 106 119
-5.49904 0.48703 7.84153 42 48 56
-5.61743 0.472028 7.87977 48 53 61
-5.22234 0.866819 7.72251 45 53 59
-5.04161 0.846007 7.64464 38 44 49
-4.18973 0.506522 7.12494 126 129 138
-8.78564 1.10676 8.87287 72 80 89
-4.11814 0.513308 7.08593 118 124 133
-4.49341 0.739331 7.39837 152 151 155
-3.55544 0.689411 6.89784 110 112 116
-4.38339 0.587166 5.41579 157 166 166
-24.6344 2.57522 21.5063 60 64 68
-5.20672 0.671399 6.11779 109 107 108
-4.58744 0.614221 5.66824 125 120 118
-17.2942 1.87359 15.9181 83 91 96
-4.19808 0.57704 5.39401 43 47 49
-33.3352 3.47764 29.1015 157 166 166
-3.36662 0.49856 4.74574 96 92 93
-3.83848 0.548354 5.16004 106 103 103
-13.5179 1.51624 13.0849 154 151 149
-3.8585 0.551846 5.19429 48 48 48
-3.94314 0.560401 5.26374 100 101 102
-13.342 1.50246 12.9807 34 36 36
-13.5653 1.52761 13.1909 140 140 139
-15.214 1.69338 14.5526 112 115 116
-14.0593 1.57946 13.6271 34 37 37
-15.2405 1.6999 14.6144 30 32 32
-14.0596 1.59047 13.7556 31 36 37
-11.8837 1.37533 11.9912 68 66 60
-13.5251 1.54227 13.3667 133 132 129
-3.2568 0.500695 4.80903 36 36 36
-10.7373 1.26217 11.0724 36 44 56
-13.4797 1.54431 13.4124 19 22 21
-14.5998 1.65859 14.353 22 26 27
-12.7464 1.47191 12.8165 49 48 45
-12.2979 1.42793 12.4656 155 150 146
-13.5625 1.55753 13.5344 145 144 142
-14.3183 1.63631 14.1899 35 41 48
-12.6379 1.46533 12.7784 63 62 58
-60.4105 6.32334 53.04 46 50 50
-13.8074 1.58537 13.7715 119 119 118
-13.888 1.59744 13.8775 39 46 51
-12.7979 1.48581 12.9677 142 142 141
-12.0389 1.41503 12.3799 47 49 48
-13.2404 1.53824 13.4104 36 39 40
-47.224 5.04908 42.6188 113 123 133
-32.5813 3.5394 30.0969 142 144 148
-39.7037 4.27499 36.2019 105 114 121
-36.2443 3.91941 33.2491 48 56 63
0.482318 0.123465 1.76525 73 77 81
-14.6302 1.69347 14.7282 68 77 87
0.746381 0.0958532 1.54454 100 101 102
-1.3115 0.311408 3.31384 106 105 105
-1.03407 0.283578 3.07989 162 157 155
-32.9887 3.59866 30.6268 61 73 84
-0.493864 0.2279 2.62761 44 44 50
-75.9626 8.06994 67.8626 55 69 84
0.19575 0.155692 2.03517 68 75 81
-0.550764 0.233222 2.68065 91 97 102
-64.2591 6.86382 57.8646 59 73 87
-33.692 3.6886 31.4258 113 123 131
-31.3497 3.44537 29.4034 41 49 56
-0.378974 0.216952 2.54285 40 41 48
-0.535501 0.2335 2.67949 53 54 60
-1.0866 0.291689 3.16436 68 67 67
0.0869669 0.1687 2.15077 78 88 101
-0.677539 0.249783 2.81553 97 105 112
-0.484659 0.229309 2.65005 47 48 55
-0.121527 0.191138 2.34048 79 85 96
95051.5 -10408.7 -82911.1 47 59 73
0.104564 0.167755 2.14497 23 24 29
1.27501 0.0425766 1.12456 101 100 101
-0.44423 0.227012 2.63945 82 90 99
-31.6034 3.50811 30.0284 60 72 84
0.16586 0.16285 2.11508 30 32 37
58289.7 -6429.19 -51298.8 55 68 82
1.35818 0.0354946 1.07147 127 154 176
0.911722 0.0837474 1.47061 38 43 49
1.03761 0.0702263 1.36105 125 125 126
-44.0819 4.83534 41.1508 102 116 128
-0.429314 0.227067 2.64985 32 36 44
0.941933 0.0806818 1.44704 141 141 142
1.33805 0.0377334 1.09359 21 25 29
1.05982 0.0680095 1.3444 136 134 135
1.16107 0.0571429 1.25499 127 124 121
1.0169 0.0732645 1.38855 118 119 121
0.823984 0.0937834 1.55787 36 41 49
1.24476 0.0483438 1.1836 151 148 147
0.877555 0.0882998 1.51289 98 103 111
-74.5701 8.07801 68.3451 105 119 133
1.11933 0.0623 1.30091 145 143 144
1.2153 0.0517569 1.21429 141 138 137
0.860267 0.0906157 1.53299 47 54 62
1.26456 0.0465193 1.17112 138 134 132
38603.1 -4267.46 -34228.7 64 79 94
0.996924 0.0757628 1.41317 36 43 49
1.18 0.055964 1.25024 147 147 146
-0.663793 0.255111 2.89373 119 119 118
0.930219 0.0834046 1.47533 115 117 121
0.848937 0.0923363 1.54935 125 124 124
1.4773 0.0236925 0.98737 126 144 162
1.25574 0.0480411 1.18675 129 126 125
1.08693 0.0668168 1.34186 124 126 130
1.39896 0.0327043 1.06503 59 62 67
-48.158 5.30912 45.2374 95 110 123
-31.3622 3.52626 30.2887 66 77 89
1.43075 0.0295035 1.04051 51 55 61
1.14833 0.0606377 1.294 46 50 53
1.42235 0.030598 1.05109 108 106 104
0.730865 0.106312 1.66867 114 112 113
1.02323 0.0743085 1.40643 83 89 97
0.812279 0.0976117 1.5975 146 143 141
1.2732 0.0472144 1.18339 19 23 26
1.11696 0.0643059 1.32542 26 31 35
0.614334 0.119504 1.77925 94 94 97
1.44212 0.0288845 1.03977 143 137 129
1.50825 0.0217364 0.978045 187 182 179
0.899915 0.088549 1.52787 31 36 41
1.33549 0.041601 1.13737 29 31 34
-2.41832 0.446404 4.52975 35 35 35
0.995266 0.0782892 1.44581 30 35 40
1.45947 0.0276673 1.03213 121 119 117
-0.391509 0.230944 2.70922 31 35 36
-0.491353 0.241837 2.8067 153 147 142
