# .PCD v0.7 - Point Cloud Data file format
VERSION 0.7
FIELDS x y z normal_x normal_y normal_z curvature
SIZE 4 4 4 4 4 4 4
TYPE F F F F F F F
COUNT 1 1 1 1 1 1 1
WIDTH 337
HEIGHT 1
VIEWPOINT 0 0 0 1 0 0 0
POINTS 337
DATA ascii
-0.48830059 0.0025590579 3.4731538 -0.18809815 -0.58072037 -0.7920751 0.070745662
-0.48204735 -0.01670957 3.4547815 -0.23267822 -0.5483678 -0.80321449 0.064031549
-0.43667334 -0.6416347 3.5618849 -0.085475512 0.55724621 -0.82593614 0.00067560893
-0.42083344 -0.0074808127 3.4951713 -0.17294034 -0.7022379 -0.69061828 0.059545346
-0.40656668 -0.65717107 3.5478477 -0.078721046 0.5432114 -0.83589739 0.00064432947
-0.40656668 -0.65717107 3.5478477 -0.078721046 0.5432114 -0.83589739 0.00064432947
-0.38626328 -0.66702479 3.5482316 -0.078720786 0.54321104 -0.83589762 0.000644285
-0.38420498 -0.64839709 3.5496621 -0.078720808 0.54321104 -0.83589756 0.00064428494
-0.38071659 -0.59754533 3.585501 -0.08547534 0.55724591 -0.82593644 0.00067549414
-0.35610548 -0.63664263 3.5574951 -0.078721218 0.54321176 -0.83589709 0.00064437406
-0.35610548 -0.63664263 3.5574951 -0.078721218 0.54321176 -0.83589709 0.00064437406
-0.34919193 -0.62948406 3.5619631 -0.078720562 0.54321057 -0.83589792 0.00064417365
-0.30643186 -0.61773682 3.5666177 -0.079693243 0.54544437 -0.83434969 0.00064334576
-0.29913142 -0.57315212 3.5965312 -0.081844516 0.55429751 -0.8282848 0.0006842154
-0.29233164 -0.58555138 3.5871141 -0.07038898 0.5393343 -0.83914465 0.00084706809
-0.29685304 -0.46697745 3.6621442 -0.080582589 0.60953325 -0.78865433 0.008791768
-0.29197267 -0.56462061 3.6004703 -0.080085866 0.55381429 -0.82877982 0.0011760021
-0.28001389 -0.60049772 3.5752356 -0.067046098 0.53958809 -0.83925539 0.0008626515
-0.2622014 -0.51433295 3.6328855 -0.053954858 0.62268406 -0.78061098 0.013089828
-0.24272285 -0.50721639 3.6385055 -0.08602079 0.61371553 -0.78482717 0.010471087
-0.23606884 -0.54003006 3.6091771 -0.040319305 0.6454767 -0.76271498 0.013657729
-0.23525845 -0.5561738 3.5972433 -0.070778683 0.55639821 -0.82789576 0.0067855134
-0.23561604 -0.54017913 3.607851 -0.061107595 0.5755105 -0.81550807 0.0049496605
-0.23561604 -0.54017913 3.607851 -0.061107595 0.5755105 -0.81550807 0.0049496605
-0.22931576 -0.58963227 3.5755599 -0.059694558 0.56027228 -0.82615465 0.005208238
-0.22396293 -0.55677599 3.5987425 -0.078721717 0.5562216 -0.82729715 0.010199485
-0.22124878 -0.54561621 3.6051013 -0.10434087 0.52421069 -0.84517229 0.0096565317
-0.21339464 -0.56045741 3.5973783 -0.078721605 0.55622172 -0.82729691 0.010199584
-0.21339464 -0.56045741 3.5973783 -0.078721605 0.55622172 -0.82729691 0.010199584
-0.21312971 -0.56069058 3.5965688 -0.078721657 0.55622166 -0.82729709 0.010199517
-0.21312971 -0.56069058 3.5965688 -0.078721657 0.55622166 -0.82729709 0.010199517
-0.20746493 -0.56822503 3.590992 -0.10475261 0.56873459 -0.8158235 0.0093881655
-0.20746493 -0.56822503 3.590992 -0.10475261 0.56873459 -0.8158235 0.0093881655
-0.19209765 -0.56247598 3.5984755 -0.16557968 0.55854893 -0.81277704 0.0065513444
-0.18748428 -0.5750674 3.5800648 -0.14965183 0.61084533 -0.77747822 0.0057116034
-0.18748428 -0.5750674 3.5800648 -0.14965183 0.61084533 -0.77747822 0.0057116034
-0.18148363 -0.55153865 3.5925071 -0.15227066 0.55455375 -0.81809765 0.0070548379
-0.17490433 -0.57462585 3.5800238 -0.15836725 0.61052138 -0.77600479 0.0039907396
-0.17394637 -0.5604893 3.5868692 -0.14609885 0.59011304 -0.79399103 0.0064758416
-0.17240898 -0.52737659 3.6091177 -0.12692447 0.61144334 -0.78104246 0.0067513562
-0.16859108 -0.54013997 3.6016829 -0.13990904 0.62478381 -0.76816058 0.0069004321
-0.16737248 -0.55390096 3.5922287 -0.1451962 0.58983475 -0.79436332 0.0059047784
-0.15036996 -0.55343705 3.5934067 -0.099434905 0.62275231 -0.77607495 0.0070956824
-0.14607203 -0.21350372 3.5743103 -0.039339636 -0.14481074 -0.98867702 0.13896357
-0.13868326 -0.45178601 3.6717904 -0.24124604 0.57515168 -0.7816655 0.044287462
-0.12936582 -0.54791677 3.5909781 -0.10089824 0.60629392 -0.78881377 0.005954551
-0.12936582 -0.54791677 3.5909781 -0.10089824 0.60629392 -0.78881377 0.005954551
-0.12701119 -0.42095727 3.6879511 -0.17424741 0.63632971 -0.75148004 0.046025217
-0.12701119 -0.42095727 3.6879511 -0.17424741 0.63632971 -0.75148004 0.046025217
-0.12063861 -0.55227119 3.5879099 -0.085814036 0.59870338 -0.79636067 0.0033207503
-0.12062952 -0.49286914 3.6336758 -0.10334653 0.59964937 -0.7935617 0.0019696346
-0.11136382 -0.55134553 3.591959 -0.051320881 0.59992331 -0.79840982 0.0044338712
-0.11041868 -0.55068505 3.5890324 -0.051320922 0.59992331 -0.79840982 0.0044339155
-0.10036421 -0.44899368 3.6600604 -0.17156591 0.58330613 -0.79392636 0.055649392
-0.085986063 0.034886368 3.2265968 0.63699991 0.46002311 -0.61855465 0.0020019542
-0.085986063 0.034886368 3.2265968 0.63699991 0.46002311 -0.61855465 0.0020019542
-0.097768299 -0.34874007 3.7582645 -0.17714779 0.60618013 -0.77534789 0.03518929
-0.094510794 -0.47658554 3.6385958 -0.12098196 0.56795347 -0.81412047 0.0043897233
-0.08617527 -0.22731838 3.5710361 0.17947488 -0.16318354 -0.9701339 0.14509407
-0.082017973 -0.45027182 3.661942 -0.15194573 0.58021545 -0.80016404 0.070526078
-0.075241849 -0.52584583 3.5994534 -0.1061352 0.5810951 -0.80688518 0.0057170838
-0.06935586 -0.49339586 3.6274788 -0.12304293 0.57342356 -0.8099665 0.0063430304
-0.06935586 -0.49339586 3.6274788 -0.12304293 0.57342356 -0.8099665 0.0063430304
-0.059676941 -0.51865083 3.6066213 -0.12281027 0.58381414 -0.80254513 0.0052571604
-0.05757888 -0.42165861 3.5883479 -0.10506941 0.5048613 -0.85678202 0.1076832
-0.045867991 -0.51419973 3.6091616 -0.14698607 0.58066487 -0.80076432 0.0066277403
-0.041421663 -0.52816027 3.6116369 -0.15823336 0.61168975 -0.77511144 0.0048471997
-0.0405664 -0.48468971 3.6273818 -0.12836809 0.59543276 -0.79308349 0.0079070991
-0.030092383 -0.21382681 3.6010053 0.41469479 -0.14040977 -0.89906245 0.14918649
-0.030092383 -0.21382681 3.6010053 0.41469479 -0.14040977 -0.89906245 0.14918649
-0.028601339 -0.50330836 3.6169221 -0.15747024 0.60313445 -0.78194112 0.0078391377
-0.02043757 -0.47041929 3.6352777 -0.17087163 0.5948711 -0.78544968 0.0075554308
-0.020153912 -0.50732481 3.6032133 -0.15370448 0.60258639 -0.78311205 0.0068347696
-0.017106736 -0.46366236 3.6435788 -0.14775325 0.61906594 -0.77131474 0.0025470441
-0.017106736 -0.46366236 3.6435788 -0.14775325 0.61906594 -0.77131474 0.0025470441
-0.0085969307 -0.45221403 3.6493049 -0.14557669 0.6128006 -0.77671283 0.0049596475
-0.003551306 -0.45765048 3.6458471 -0.159179 0.60554916 -0.77972573 0.0083737401
-0.0034821949 -0.27642018 3.7595801 0.60517657 0.68094563 -0.41240078 0.19838592
-0.0026432192 -0.50613487 3.6002069 -0.16759914 0.59058177 -0.78938192 0.0078321034
0.013963323 -0.50852323 3.5990014 -0.17045578 0.60718203 -0.77606374 0.0095786108
0.02651084 -0.49363884 3.6071155 -0.159179 0.60554898 -0.77972585 0.008373633
0.029209111 -0.50473857 3.6001029 -0.18383381 0.5840559 -0.79062241 0.010301261
0.031527638 -0.48220262 3.6162367 -0.16713524 0.59956449 -0.78268021 0.0070916712
0.032665394 -0.47292221 3.6226881 -0.16307929 0.6043945 -0.77981561 0.0065168268
0.036328945 -0.22959197 3.6090574 0.66586959 0.69446403 -0.27264911 0.037501048
0.057592891 -0.084456526 3.2897415 0.64727396 0.4969596 -0.57798576 0.0097334925
0.063742906 -0.46792176 3.6102619 -0.15238157 0.61550862 -0.77325863 0.0055018896
0.0638237 -0.098474011 3.2898834 0.64727396 0.49695972 -0.5779857 0.0097334944
0.0638237 -0.098474011 3.2898834 0.64727396 0.49695972 -0.5779857 0.0097334944
0.072624564 -0.098853499 3.2968869 0.64727408 0.49695969 -0.5779857 0.0097334236
0.073573813 -0.088399924 3.3015482 0.64727402 0.49695966 -0.5779857 0.0097335437
0.083574489 -0.085725561 3.3132627 0.64727384 0.49695975 -0.5779857 0.0097335177
0.097268037 -0.4418042 3.6365805 -0.20504427 0.58978128 -0.78109848 0.03645239
0.087674983 -0.1280221 3.2853138 0.66032135 0.44997427 -0.60124767 0.0088765146
0.099718004 -0.42703381 3.6466966 -0.21922961 0.57962817 -0.78483731 0.040414467
0.1004746 -0.40592709 3.6657717 -0.32337165 0.77415001 -0.54417145 0.064206943
0.095216945 -0.023440894 3.3771472 0.70882547 0.4163239 -0.56942147 0.003584031
0.11202952 -0.45530009 3.6281393 -0.20511979 0.58168882 -0.78712386 0.04084716
0.11786678 -0.32277864 3.7347281 -0.23146473 0.73751658 -0.63442367 0.037108805
0.1199538 -0.40326488 3.6657956 -0.33337146 0.76496744 -0.55107915 0.073681466
0.11430435 0.055641174 3.4628513 0.71443462 0.40572369 -0.57006276 0.063839525
0.12513819 -0.2822049 3.7765422 0.11613375 0.82162642 -0.55807066 0.032965094
0.11340798 0.0016396424 3.4157436 0.73211181 0.43411925 -0.52493119 0.0024783083
0.11345006 -0.015475532 3.3982372 0.72588122 0.44413036 -0.52520907 0.0026115763
0.11281949 -0.11117835 3.3283355 0.65975201 0.48537353 -0.57370704 0.0087775346
0.11659796 -0.037035044 3.3874743 0.70578957 0.41618761 -0.57327902 0.0032526469
0.12095682 -0.068516381 3.3741641 0.70677102 0.4042885 -0.58053911 0.003111254
0.12095682 -0.068516381 3.3741641 0.70677102 0.4042885 -0.58053911 0.003111254
0.12606606 0.084791362 3.5030794 0.72985113 0.44573349 -0.51830393 0.045001868
0.12090937 -0.12018152 3.3308613 0.70019329 0.46264336 -0.54377437 0.006750098
0.12090937 -0.12018152 3.3308613 0.70019329 0.46264336 -0.54377437 0.006750098
0.12126867 -0.13331814 3.3276081 0.68690878 0.45645183 -0.5655157 0.0076014861
0.13404758 -0.41651779 3.6555672 -0.2611742 0.68716508 -0.67793226 0.081247136
0.12746644 0.046792462 3.4693141 0.73001993 0.38602412 -0.56396478 0.06437853
0.13604985 -0.046640344 3.407433 0.72182786 0.44396958 -0.53090078 0.0040066643
0.15101439 -0.38384694 3.6738315 -0.10589466 0.87973493 -0.46352217 0.086615823
0.15091293 -0.44957995 3.6146028 -0.24874361 0.60807604 -0.75390327 0.039142061
0.13853157 -0.14110574 3.3287916 0.68576527 0.45939931 -0.56451601 0.0061066025
0.15034278 0.095424995 3.542165 0.76399791 0.43033826 -0.48074543 0.045301631
0.16305833 -0.41903087 3.6363604 -0.16433457 0.65307575 -0.73924696 0.08581809
0.17182691 -0.39465544 3.66067 -0.042360164 0.85103124 -0.52340358 0.10492989
0.16366456 -0.087044321 3.413415 0.71033424 0.44254088 -0.54734164 0.0031649545
0.17251039 0.11655141 3.5912468 0.75601083 0.44577959 -0.47929969 0.043643367
0.16253251 -0.14619811 3.3697543 0.68696809 0.46750468 -0.5563401 0.0055005765
0.18223697 -0.42773438 3.6277242 -0.16091466 0.69900942 -0.69677269 0.065312944
0.18507406 -0.36962315 3.6737785 -0.13122606 0.8192035 -0.55828792 0.08833158
0.17058317 -0.13421026 3.3830221 0.71114606 0.45566759 -0.53538615 0.0047855447
0.17819323 -0.04166808 3.4700346 0.71722901 0.45105118 -0.53116417 0.0012892938
0.17689244 -0.079546928 3.4283814 0.71655118 0.46434072 -0.52052104 0.0023536072
0.17975642 -0.031804029 3.4826262 0.71740973 0.45149145 -0.53054577 0.0012242571
0.18971576 -0.39954638 3.6532483 0.0050946879 0.84653199 -0.53231347 0.087971509
0.17770508 -0.092866398 3.4268899 0.69720179 0.46659777 -0.5442391 0.0031218571
0.19165009 -0.4201633 3.6295269 -0.074360445 0.74360764 -0.66446835 0.063959494
0.18133561 -0.11326 3.4133151 0.69302261 0.45998636 -0.55509663 0.0035871519
0.20457496 -0.40438548 3.6429851 0.025121178 0.81789315 -0.57482153 0.057691034
0.19212335 -0.10018278 3.4250844 0.72294432 0.45262155 -0.52200127 0.0030165582
0.19655821 -0.089473739 3.4525375 0.71886963 0.44610986 -0.53311574 0.0018749271
0.20196584 -0.017089641 3.5141187 0.71589035 0.44039127 -0.54180866 0.00050602021
0.19690773 -0.14803077 3.4034386 0.72159183 0.4388234 -0.53548044 0.0036460026
0.20300941 -0.050210509 3.5002875 0.71285123 0.45938236 -0.52991605 0.0010911436
0.21601827 -0.34065992 3.7033508 -0.041838635 0.7611351 -0.64724249 0.05738109
0.20090541 -0.13725872 3.4187179 0.72484833 0.44306359 -0.52753162 0.0036561801
0.21433996 0.055080313 3.5910923 0.78662997 0.43115321 -0.44195032 0.03700437
0.21467291 0.054963004 3.5896022 0.78662997 0.43115327 -0.44195035 0.03700437
0.22490133 -0.06443917 3.5093417 0.71829766 0.46027505 -0.52172345 0.00097866508
0.22923687 -0.18515809 3.4168875 0.70538765 0.56734753 -0.4249059 0.038511559
0.24518599 -0.025873773 3.5734868 0.70694232 0.45001942 -0.54563266 0.0019168822
0.22421484 -0.70318443 3.1147535 0.013006991 0.74341363 -0.6687054 0.086076319
0.24601176 -0.17220801 3.4485598 0.7154153 0.45168686 -0.53306669 0.002192616
0.26625454 -0.014446131 3.6083066 0.72297341 0.44854885 -0.52546483 0.0017565953
0.23073711 -0.71460813 3.0864525 0.24857819 0.8949281 -0.37055713 0.065166503
0.27059552 -0.087618388 3.5499873 0.69646418 0.48582357 -0.52812231 0.0024044095
0.27059552 -0.087618388 3.5499873 0.69646418 0.48582357 -0.52812231 0.0024044095
0.27273828 -0.09853664 3.5442865 0.69679129 0.47517958 -0.53729528 0.0024521118
0.24756055 -0.71279645 3.0758333 0.16229875 0.62483573 -0.7637012 0.033313897
0.29476815 -0.091134235 3.5824118 0.6945315 0.50156063 -0.51581299 0.0025105253
0.30061099 -0.16402328 3.5261838 0.66467446 0.50470024 -0.55089521 0.0022425987
0.31923163 -0.12802888 3.5593693 0.67129147 0.55292249 -0.4936035 0.003649849
0.31485254 -0.41598454 3.428221 -0.48255172 0.54781991 -0.68340117 0.076708391
0.29527199 -0.82521117 3.0888906 -0.060956713 -0.42823288 -0.9016102 0.038703043
0.30923221 -0.57568157 3.2531648 -0.65640217 0.68704861 -0.31160933 0.012955599
0.34639952 -0.088362008 3.6578047 0.66118133 0.55180585 -0.50828093 0.0038529718
0.35549623 0.036206003 3.7369449 0.61410481 0.49578071 -0.61406571 0.0085827094
0.34126335 -0.376169 3.4779401 -0.19000049 0.79136872 -0.58106399 0.078727603
0.36341891 -0.11648852 3.6547668 0.64092362 0.53311753 -0.55227035 0.006821916
0.36421439 -0.12825921 3.6253381 0.64367455 0.56474656 -0.516473 0.0036535237
0.33654347 -0.53073806 3.285949 -0.60463631 0.69024533 -0.39746231 0.032746393
0.33654347 -0.53073806 3.285949 -0.60463631 0.69024533 -0.39746231 0.032746393
0.36539611 -0.26256439 3.5016756 0.22425748 0.38455725 -0.89544648 0.010514565
0.39577946 -0.089518897 3.6941807 0.50858605 0.53678584 -0.67320222 0.0093198689
0.38006169 -0.36187509 3.4951689 0.039052151 0.44928744 -0.8925333 0.064628311
0.3868888 -0.39552039 3.4671359 0.10621984 0.7459054 -0.65752751 0.0043406929
0.40350473 -0.16854168 3.6248386 0.60418218 0.55042577 -0.57619041 0.0078222547
0.40350473 -0.16854168 3.6248386 0.60418218 0.55042577 -0.57619041 0.0078222547
0.38750729 -0.3875722 3.4696231 0.10744702 0.74584252 -0.65739954 0.0045025647
0.42802563 -0.024258139 3.7790165 0.47815979 0.51288635 -0.71295911 0.0053722984
0.35879916 -0.80364692 3.1020491 -0.060956661 -0.4282327 -0.90161026 0.038703069
0.35879916 -0.80364692 3.1020491 -0.060956661 -0.4282327 -0.90161026 0.038703069
0.39505365 -0.41172481 3.4370592 0.090746604 0.76696414 -0.63524091 0.0021155064
0.38930973 -0.49146825 3.3507564 0.095923282 0.7491315 -0.65543938 0.0014975653
0.40866882 -0.39285138 3.4644496 0.075331919 0.7633028 -0.64163375 0.0014997214
0.40866882 -0.39285138 3.4644496 0.075331919 0.7633028 -0.64163375 0.0014997214
0.39826033 -0.49426153 3.3490872 0.080712557 0.75626522 -0.64926749 0.0012393506
0.443744 -0.06527584 3.7478328 0.48463619 0.52605987 -0.69884819 0.0059996229
0.42640033 -0.42855847 3.4229827 0.087624244 0.75538665 -0.64939433 0.0010385709
0.42640033 -0.42855847 3.4229827 0.087624244 0.75538665 -0.64939433 0.0010385709
0.43904248 -0.35778359 3.5063496 0.098496474 0.74219221 -0.66290963 0.0044653774
0.43904248 -0.35778359 3.5063496 0.098496474 0.74219221 -0.66290963 0.0044653774
0.44465181 -0.38939929 3.4754534 0.10494573 0.74383557 -0.66007203 0.0047099092
0.44465181 -0.38939929 3.4754534 0.10494573 0.74383557 -0.66007203 0.0047099092
0.47778806 -0.087590538 3.7455409 0.39027113 0.62741297 -0.67382592 0.0027460426
0.47778806 -0.087590538 3.7455409 0.39027113 0.62741297 -0.67382592 0.0027460426
0.44146138 -0.4117294 3.4412181 0.081124663 0.76381254 -0.64031959 0.0014605315
0.45168984 -0.37086979 3.4969726 0.11088266 0.74591994 -0.65674084 0.0043805642
0.41455096 -0.84116483 3.1067438 0.071234666 -0.64779717 -0.75847507 0.02681268
0.46538028 -0.37484071 3.4941094 0.11088262 0.74591994 -0.65674078 0.0043805018
0.46440107 -0.40555885 3.4590032 0.08112473 0.76381248 -0.64031959 0.0014605938
0.46440107 -0.40555885 3.4590032 0.08112473 0.76381248 -0.64031959 0.0014605938
0.47528669 -0.39456508 3.4690878 0.11278866 0.7394312 -0.66371685 0.0043315943
0.51962703 -0.10295994 3.7539845 0.36176509 0.64873111 -0.6695326 0.0019925931
0.53347135 -0.081192508 3.7780929 0.44853944 0.53598422 -0.71521556 0.0051197093
0.54908848 -0.024335822 3.8457677 0.45756531 0.51353627 -0.72588873 0.0046635731
0.57000798 -0.061760936 3.8441398 0.45756504 0.51353663 -0.72588861 0.0046637622
0.46915153 -0.79154336 3.0843749 0.071234778 -0.64779681 -0.75847542 0.02681263
0.48940963 -0.8517344 3.116509 0.07123477 -0.64779693 -0.7584753 0.026812656
0.48644742 -0.8095023 3.0978584 0.071234733 -0.64779711 -0.75847518 0.026812702
0.59679991 -0.054368038 3.841748 0.4485395 0.53598416 -0.71521562 0.0051197098
0.49469328 -0.84001637 3.1177952 0.071234755 -0.64779699 -0.75847524 0.026812676
0.50584698 -0.7940582 3.1018724 0.071234703 -0.64779705 -0.75847518 0.026812701
0.63223505 -0.080396131 3.8368509 0.4462502 0.54866344 -0.70698607 0.0054163239
0.59749228 -0.83738101 3.1311519 0.07123474 -0.64779705 -0.75847524 0.026812676
0.063620418 -0.098544613 3.277806 0.64727384 0.49695972 -0.57798582 0.0097335409
0.47889408 -0.08986143 3.7578781 0.39027083 0.62741321 -0.67382574 0.0027460428
0.46297491 -0.78241891 3.072531 0.071234748 -0.64779693 -0.75847536 0.026812678
0.47678408 -0.83218765 3.1078637 0.07123477 -0.64779675 -0.75847542 0.02681263
0.51070255 -0.80059928 3.1274836 0.07123477 -0.64779693 -0.75847524 0.02681268
0.52869552 -0.7991426 3.0982754 0.071234748 -0.64779699 -0.75847524 0.026812656
-0.29741162 -0.59421617 3.5767791 -0.075952128 0.54321676 -0.83614999 0.0004361741
-0.18024753 -0.45908412 3.6672299 -0.14944214 0.6108197 -0.77753872 0.0029624354
0.07677646 -0.09886536 3.2820828 0.64727384 0.49695989 -0.5779857 0.0097335409
0.086856626 -0.087060153 3.299854 0.6472739 0.49695981 -0.57798576 0.0097335186
-0.16097939 -0.56622207 3.5815642 -0.11680143 0.58212775 -0.80466431 0.0056787562
0.097869299 -0.022993309 3.3672886 0.70277458 0.41441157 -0.57824808 0.0040166364
-0.12803954 -0.41095346 3.6984763 -0.14864571 0.65816623 -0.73805261 0.047209218
0.10822408 -0.0036442138 3.3962908 0.73211187 0.43411925 -0.52493119 0.002478308
0.12006579 0.071926229 3.474437 0.71700805 0.4219591 -0.55484217 0.056941438
0.10007605 -0.11485083 3.3011603 0.6472739 0.49695975 -0.57798576 0.0097335428
0.1159515 -0.017078832 3.3868916 0.71500963 0.43888357 -0.54418975 0.003013019
0.13453868 0.076323994 3.5043182 0.74765486 0.41010696 -0.52232599 0.050259098
0.12349461 -0.068958744 3.3636596 0.71608454 0.41160551 -0.56374085 0.0039059962
0.1365093 0.040312506 3.4791799 0.73001975 0.38602421 -0.5639649 0.064378515
0.14093782 -0.14280349 3.3168855 0.68549812 0.48986366 -0.53863335 0.0057244999
0.17078741 0.15729098 3.6292448 0.75469893 0.48675954 -0.43988019 0.03338946
-0.04561745 -0.50110066 3.6116748 -0.13656928 0.59595972 -0.79131585 0.0083711706
0.16627844 -0.086894512 3.4017656 0.70554829 0.44676262 -0.55009526 0.0037504379
0.17851382 0.022511847 3.5208242 0.749547 0.41638002 -0.5145939 0.054439943
0.16833083 -0.10843752 3.3913817 0.70441854 0.45221671 -0.54707813 0.0041466476
0.1618284 -0.16222627 3.3457229 0.60118181 0.66680455 -0.44040006 0.030550873
0.16477337 -0.1459991 3.3599365 0.68696809 0.46750456 -0.55634016 0.0055005234
0.20130061 0.13876186 3.6545794 0.69720125 0.54850322 -0.46157846 0.029195635
0.20964086 0.099503547 3.6242414 0.77073306 0.48122627 -0.41760239 0.028855875
0.18045437 -0.16349003 3.3620255 0.62198263 0.65342546 -0.4314774 0.033633906
0.19193059 -0.15989761 3.3761332 0.67882907 0.5908649 -0.43596989 0.03780191
0.22913659 0.17512128 3.7888985 0.68563128 0.50736517 -0.52200609 0.0045880442
0.21370989 -0.14203668 3.4287441 0.72484845 0.44306356 -0.52753162 0.0036561524
0.20862526 -0.19252789 3.3748982 0.63551003 0.65314853 -0.41173288 0.03131457
0.23938967 -0.060247008 3.5270054 0.70351028 0.48920345 -0.51551259 0.00184732
0.23693372 -0.17487241 3.4377954 0.71541518 0.45168677 -0.53306663 0.0021925005
0.26234022 -0.079589136 3.5466132 0.70238608 0.48340949 -0.52246433 0.0021545554
0.28467885 -0.071004242 3.5929375 0.70505643 0.49362427 -0.50914687 0.0026437673
0.28931609 -0.082384899 3.5892739 0.70505637 0.49362409 -0.50914699 0.0026437908
0.33927906 -0.13859643 3.586473 0.65123296 0.57678884 -0.49316362 0.0029952049
0.34448031 -0.12993479 3.6210666 0.64367449 0.56474656 -0.516473 0.0036535235
0.39325619 -0.090730332 3.7073786 0.50858587 0.5367859 -0.67320222 0.0093198689
0.39430982 -0.10870076 3.6946261 0.49688762 0.58364975 -0.64222711 0.0095974626
0.39467862 -0.13292731 3.6656275 0.57157612 0.5359273 -0.62135553 0.011290507
0.39831796 -0.12626135 3.6758895 0.57157612 0.5359273 -0.62135559 0.01129048
0.34404615 -0.40269452 3.4447076 -0.36807036 0.59045768 -0.71825057 0.087246321
0.34565663 -0.42625248 3.413723 -0.24084583 0.71735722 -0.65375215 0.050989006
0.40137175 -0.16946568 3.6360538 0.57715577 0.54518473 -0.6080007 0.010959302
0.35876065 -0.4308407 3.411304 -0.032729521 0.76238197 -0.64629894 0.024491256
0.33985549 -0.74508387 3.0252526 -0.060956549 -0.42823219 -0.90161043 0.038702972
0.47258723 -0.78307122 3.0670059 0.071234733 -0.64779705 -0.75847518 0.026812678
0.47385767 -0.82425863 3.0994089 0.071234733 -0.64779705 -0.75847518 0.026812702
0.49935341 -0.80054706 3.1460199 0.071234718 -0.64779705 -0.75847518 0.026812702
0.50936538 -0.79311156 3.0884089 0.071234718 -0.64779693 -0.75847524 0.026812702
0.54274225 -0.82601106 3.1012971 0.071234748 -0.64779693 -0.7584753 0.026812678
0.27651235 1.8318237 -12.815397 -0.80067271 -0.59223962 -0.090417482 0.00037934369
-0.40444019 -0.64692056 3.5567827 -0.078721292 0.54321188 -0.83589703 0.00064437406
-0.30112585 -0.60915428 3.5713561 -0.076735221 0.54784209 -0.83305502 0.00041344875
-0.26393303 -0.50937003 3.6559565 -0.074237093 0.61171705 -0.78758568 0.0094139883
-0.25178573 -0.50759006 3.6581366 -0.086020902 0.61371559 -0.78482717 0.010471182
-0.21605831 -0.58429492 3.5790749 -0.087208703 0.56232047 -0.82230788 0.0099556288
-0.19980142 -0.54929882 3.6062465 -0.10928062 0.4966723 -0.861031 0.0083481045
-0.19091959 -0.45975551 3.6734414 -0.11404664 0.59924084 -0.79240382 0.004745401
-0.13866234 -0.54023844 3.6038699 -0.099396385 0.6088869 -0.78700513 0.0061615831
-0.14057808 -0.52429062 3.6189075 -0.11349549 0.59208369 -0.79784435 0.0049694469
-0.11236399 -0.54271024 3.5996892 -0.083133675 0.60394585 -0.79267794 0.0025089851
-0.020805959 -0.452508 3.6441653 -0.07732594 0.49655187 -0.86455595 0.1096032
0.038802043 -0.50079316 3.605305 -0.1648484 0.6151126 -0.77101326 0.0067768008
0.055864792 -0.43907294 3.6349635 -0.14259498 0.61355364 -0.77667153 0.0045630708
0.066392004 -0.47151172 3.6287315 -0.14782162 0.61714715 -0.77283782 0.0053936816
0.094075382 -0.45105845 3.6272368 -0.16424273 0.6132763 -0.77260369 0.0081994087
0.12394767 -0.44785994 3.6270902 -0.20511995 0.58168906 -0.78712356 0.040847257
0.1417729 -0.46455011 3.6169484 -0.24544147 0.5978412 -0.76311487 0.033370323
0.10977555 -0.32014737 3.7064757 -0.26641744 0.73741728 -0.62067515 0.047968201
0.1444585 -0.37998602 3.6643093 -0.18070896 0.87126702 -0.45633096 0.081634194
0.15658626 -0.39885643 3.6445963 -0.11125477 0.76670676 -0.63228422 0.10846042
0.24268918 -0.42377356 3.6198993 -0.044004358 0.75631422 -0.65272683 0.031365253
0.14670207 -0.45715481 3.6049871 -0.24522443 0.5483166 -0.79950857 0.022866754
0.14924356 -0.38554239 3.6371145 -0.098583534 0.83795929 -0.53675461 0.10231049
0.1564634 -0.39238229 3.6277831 -0.19491713 0.71217114 -0.67440313 0.10160545
0.22462055 -0.3924166 3.6680126 -0.02981592 0.75903088 -0.65037143 0.062800631
0.21419784 0.079690672 3.4440904 0.74920356 0.38838008 -0.53652114 0.055978306
-0.049845774 -0.15639931 3.7029023 0.53449976 -0.50801915 -0.67544538 0.11780434
0.25265464 -0.50540179 3.5100482 -0.75054753 0.34996754 -0.56053644 0.046614669
0.24142018 -0.42277765 3.5100837 -0.79352045 0.3889527 -0.46801817 0.028320618
0.33793584 -0.37541288 3.4636054 -0.31696913 0.68996465 -0.65075296 0.1005036
0.36028415 -0.34613433 3.4920213 0.1081428 0.44897112 -0.88697809 0.060695641
0.23737895 -0.19283406 3.3127475 0.59749842 0.72872996 -0.3345868 0.020762291
0.12654257 -0.71836179 3.338093 -0.46738863 0.80151361 -0.3729929 0.041750446
0.15010592 -0.67737341 3.3741825 -0.57750541 0.77705783 -0.25033727 0.028241733
0.17378695 -0.65102118 3.3958504 -0.6916914 0.61633617 -0.3764208 0.013094012
0.27135143 -0.53034621 3.4796515 -0.77939928 0.31455761 -0.5418396 0.024162756
0.23527519 -0.50465411 3.5230582 -0.59705013 0.44913733 -0.66468555 0.042744789
0.23681776 -0.49472284 3.5345378 -0.62018502 0.44278085 -0.64754581 0.042473402
0.21861219 -0.49117193 3.5455365 -0.55685341 0.50245625 -0.66140163 0.040265378
0.21016234 -0.47035274 3.5734348 -0.34550741 0.71457011 -0.60828799 0.036437675
0.26483256 -0.46319258 3.5610363 -0.68165529 0.48379731 -0.54889548 0.038917292
0.22493429 -0.44675007 3.5948582 -0.27567798 0.74630433 -0.60583127 0.056208812
0.15620786 -0.40408275 3.6714633 -0.098583549 0.83795929 -0.53675455 0.1023105
0.14522175 -0.39241752 3.6889389 -0.18070897 0.87126702 -0.45633098 0.081634216
0.2629692 -0.40415797 3.6308613 -0.12278211 0.74908483 -0.65099657 0.028006081
0.19980316 -0.38566226 3.6755533 -0.073948465 0.76469415 -0.64013624 0.095930323
0.13875034 -0.36734265 3.7205827 -0.16566192 0.74881905 -0.64173687 0.051612508
0.10657161 -0.33733833 3.768672 0.064587437 0.79502296 -0.603131 0.046398472
0.13079059 -0.33775157 3.7578554 -0.2314647 0.73751664 -0.63442367 0.037108831
0.10533073 -0.32506099 3.7828243 0.056771997 0.79274964 -0.60689789 0.046057731
0.09183418 -0.30835429 3.8077214 0.081849203 0.80896062 -0.58213681 0.034493484
0.09671586 -0.28457949 3.8315895 0.081849061 0.80896068 -0.58213681 0.034493402
0.06945271 -0.21646823 3.9139514 0.50848162 0.81681746 -0.27249902 0.13228202
0.23221272 -0.55673414 3.4952078 -0.64454162 0.5122332 -0.56761193 0.04652841
0.25430018 -0.51301408 3.4970267 -0.800538 0.36992821 -0.47147843 0.028040089
0.25897402 -0.50325257 3.4999113 -0.80053806 0.36992827 -0.47147855 0.028040113
0.27087802 -0.48338541 3.499722 -0.77995515 0.34555474 -0.52178717 0.025553092
0.28117174 -0.46237552 3.498966 -0.77704 0.34501901 -0.52647001 0.025772421
0.28678688 -0.45259643 3.4989643 -0.76955974 0.36993256 -0.52050716 0.026189074
0.30497465 -0.4200739 3.4976702 -0.72679323 0.53382331 -0.4322086 0.048878655
0.34525135 -0.35728309 3.4975197 0.11260382 0.51342118 -0.85071677 0.06849689
0.16139045 -0.40771866 3.68222 -0.066936351 0.86118835 -0.50385928 0.096642099
0.19036913 -0.40139118 3.6652565 -0.042360123 0.85103136 -0.52340358 0.10492984
0.074135847 -0.67418116 3.1442633 -0.0011225664 0.85089582 -0.52533329 0.079762898
0.086505063 -0.671628 3.1364474 -0.0025553312 0.84550983 -0.53395373 0.084698409
0.403171 -0.49262923 3.7039771 0.35815552 0.8953287 -0.26478508 0.037257377
0.45127475 -0.49718732 3.6874697 -0.087623358 -0.88001734 -0.46678868 0.03076965
0.46868229 -0.49818 3.6756911 -0.11826712 -0.88258225 -0.45504007 0.033569027
0.50225741 -0.50114 3.6727066 -0.27224407 -0.86945736 -0.41222206 0.031544138
