ply
format ascii 1.0
element vertex 392
property float x
property float y
property float z
property uchar red
property uchar green
property uchar blue
end_header
-0.171862 -0.219896 2.35581 108 0 0
-0.159935 -0.227179 2.35352 150 0 2
-0.159935 -0.227179 2.35352 150 0 2
-0.151583 -0.231365 2.3547 240 233 215
-0.150776 -0.223688 2.35504 131 1 0
-0.148554 -0.201238 2.36459 98 0 1
-0.139101 -0.21872 2.35846 132 0 3
-0.139101 -0.21872 2.35846 132 0 3
-0.136187 -0.215634 2.35999 248 245 252
-0.118579 -0.210927 2.36327 99 1 0
-0.11507 -0.191373 2.37148 107 1 1
-0.112448 -0.196907 2.36933 99 0 0
-0.113026 -0.145453 2.38852 79 0 0
-0.11208 -0.187761 2.37283 240 238 241
-0.107595 -0.203651 2.3668 240 240 240
-0.0994026 -0.166061 2.38276 126 0 1
-0.0913762 -0.163054 2.38526 239 234 240
-0.0890681 -0.177679 2.37779 96 1 0
-0.0889025 -0.1848 2.37469 242 232 243
-0.0889008 -0.177795 2.37743 95 1 1
-0.0889008 -0.177795 2.37743 95 1 1
-0.0867503 -0.199523 2.36932 70 0 2
-0.084231 -0.185053 2.37567 91 0 0
-0.083044 -0.18023 2.37748 233 231 236
-0.0799076 -0.186693 2.3759 241 233 244
-0.0799076 -0.186693 2.3759 241 233 244
-0.0798074 -0.186822 2.37568 239 225 242
-0.0798074 -0.186822 2.37568 239 225 242
-0.0775439 -0.19019 2.37449 236 229 237
-0.0775439 -0.19019 2.37449 236 229 237
-0.0711171 -0.187603 2.37729 233 230 237
-0.0694466 -0.193603 2.37254 84 0 2
-0.0694466 -0.193603 2.37254 84 0 2
-0.0668409 -0.183424 2.37606 89 1 0
-0.0642516 -0.193503 2.37317 250 245 241
-0.0637858 -0.18739 2.37496 239 227 237
-0.0629314 -0.172864 2.38092 231 232 236
-0.061424 -0.17843 2.37915 232 231 237
-0.0610164 -0.184491 2.37673 240 229 243
-0.0539802 -0.184351 2.37793 80 0 0
-0.052699 -0.0437752 2.36915 204 175 205
-0.0484776 -0.139704 2.39915 231 221 230
-0.0453254 -0.182299 2.37827 233 230 237
-0.0453254 -0.182299 2.37827 233 230 237
-0.0435785 -0.126612 2.40385 57 0 0
-0.0435785 -0.126612 2.40385 57 0 0
-0.0417327 -0.18427 2.37791 106 0 0
-0.0413808 -0.157998 2.39 237 223 236
-0.0378571 -0.18377 2.37952 252 254 253
-0.0374915 -0.183627 2.37874 254 255 253
-0.0328726 -0.139134 2.3979 89 0 1
-0.0301666 0.0591055 2.26533 94 0 0
-0.0301666 0.0591055 2.26533 94 0 0
-0.0311622 -0.0952126 2.42368 39 1 0
-0.030598 -0.15125 2.39256 238 222 232
-0.0277419 -0.0497463 2.37149 61 1 3
-0.0253175 -0.139668 2.39937 230 225 232
-0.0228496 -0.173133 2.3832 231 225 229
-0.0202723 -0.15869 2.39096 219 208 224
-0.0202723 -0.15869 2.39096 219 208 224
-0.0163583 -0.169952 2.38593 222 218 233
-0.01563 -0.130479 2.37988 88 0 0
-0.0106221 -0.168081 2.38732 226 220 232
-0.00876132 -0.17376 2.38839 254 255 255
-0.00837388 -0.15524 2.39237 70 0 0
-0.00418438 -0.0435823 2.38282 188 173 192
-0.00418438 -0.0435823 2.38282 188 173 192
-0.00343774 -0.163363 2.39027 238 218 229
-2.15194e-05 -0.149152 2.39547 76 2 3
3.5043e-05 -0.165595 2.38694 68 0 0
0.00137355 -0.146081 2.39787 228 205 225
0.00137355 -0.146081 2.39787 228 205 225
0.00489861 -0.141199 2.39979 220 206 219
0.0069826 -0.143578 2.39915 221 207 220
0.00711831 -0.0660234 2.42837 255 255 253
0.00731528 -0.165298 2.38702 64 0 1
0.014233 -0.166405 2.38758 255 255 255
0.0194567 -0.159982 2.39036 60 0 4
0.0205888 -0.164858 2.38866 245 244 240
0.0215363 -0.154926 2.39306 58 0 3
0.0220033 -0.150853 2.39481 213 206 222
0.0235559 -0.0501071 2.38879 90 2 1
0.0334105 0.00676672 2.29399 104 0 1
0.0349706 -0.149358 2.39298 53 0 3
0.0361566 0.000575127 2.29451 111 0 0
0.0361566 0.000575127 2.29451 111 0 0
0.0400073 0.000500287 2.29719 246 235 233
0.0404064 0.00517386 2.2986 103 0 0
0.0447526 0.00650112 2.30277 94 0 0
0.0488359 -0.137713 2.40183 205 197 212
0.0467 -0.0125624 2.2947 247 252 246
0.0498054 -0.131268 2.40461 71 0 0
0.0500217 -0.12193 2.4097 40 0 0
0.0495114 0.0344554 2.32244 253 248 244
0.0550291 -0.143639 2.40041 55 1 0
0.056811 -0.0857946 2.42862 185 156 184
0.0580982 -0.120884 2.41074 202 174 197
0.0572204 0.0691531 2.34853 249 250 245
0.0595208 -0.0682019 2.43985 181 139 185
0.0571632 0.0456415 2.3349 245 244 242
0.0573013 0.0380944 2.32979 118 0 0
0.0575091 -0.00449324 2.30929 111 0 0
0.0587408 0.0286277 2.32691 244 243 241
0.060739 0.0147749 2.32338 104 0 0
0.060739 0.0147749 2.32338 104 0 0
0.0619621 0.0817135 2.36077 250 232 230
0.06104 -0.0084131 2.31062 255 241 238
0.06104 -0.0084131 2.31062 255 241 238
0.0612202 -0.0142337 2.30976 103 0 0
0.064022 -0.12672 2.4088 198 179 198
0.0628254 0.0653813 2.35125 120 0 0
0.0670364 0.0246461 2.33408 106 0 0
0.07093 -0.112697 2.41445 49 1 0
0.0713731 -0.14187 2.39871 41 0 0
0.0687916 -0.017645 2.31118 249 250 245
0.0719679 0.0862727 2.37336 255 241 238
0.0762641 -0.128479 2.40513 49 0 0
0.079693 -0.117618 2.41208 21 0 0
0.0789531 0.00718509 2.33779 103 0 0
0.0808567 0.0951842 2.38846 255 240 240
0.0789047 -0.0191956 2.32511 107 2 0
0.0843574 -0.132428 2.40387 177 159 175
0.0850775 -0.106899 2.41617 192 169 189
0.0822762 -0.0137539 2.32948 109 0 0
0.0846117 0.0273937 2.35504 100 0 0
0.0845193 0.0106154 2.34297 249 246 241
0.0851419 0.0317421 2.35874 106 0 0
0.0872159 -0.119917 2.41106 184 166 188
0.0848856 0.00483185 2.34268 105 1 0
0.0882782 -0.129248 2.40481 196 171 193
0.0866123 -0.00418949 2.33901 114 0 2
0.0907752 0.0790554 2.38456 247 247 245
0.0935299 -0.122287 2.4091 34 0 0
0.0911475 0.00163857 2.34305 248 245 240
0.0927237 0.00662312 2.35134 247 247 245
0.0942719 0.0383013 2.36905 106 1 0
0.0934862 -0.0194403 2.33727 108 0 0
0.0948924 0.0240214 2.36537 248 245 238
0.0975752 -0.094155 2.42566 49 0 3
0.0950279 -0.0145162 2.34197 250 251 245
0.0985123 0.0693148 2.39123 250 249 245
0.0986731 0.0692627 2.39083 250 249 245
0.104133 0.0180319 2.36938 255 244 244
0.107326 -0.0353165 2.34349 98 0 0
0.11181 0.0350329 2.38863 104 0 1
0.10918 -0.275039 2.25523 166 124 134
0.114099 -0.0291295 2.35376 104 0 0
0.12015 0.0401248 2.39957 101 1 1
0.122973 0.00862207 2.38389 108 0 0
0.122973 0.00862207 2.38389 108 0 0
0.123978 0.0039084 2.38249 247 245 248
0.120451 -0.281868 2.24394 65 1 1
0.132643 0.00752762 2.39451 255 238 234
0.136173 -0.0242483 2.37945 255 242 236
0.143465 -0.00840512 2.38969 246 244 245
0.144 -0.134745 2.35413 227 226 231
0.141703 -0.331355 2.25265 225 12 58
0.144983 -0.211502 2.3025 222 221 226
0.152852 0.00960618 2.41843 244 243 241
0.154923 0.0619763 2.43952 252 247 244
0.154379 -0.116036 2.36982 227 227 227
0.160035 -0.00218924 2.41879 116 0 0
0.161044 -0.00753436 2.41081 115 0 0
0.156465 -0.190341 2.31371 94 7 15
0.156465 -0.190341 2.31371 94 7 15
0.164359 -0.0668493 2.37704 255 250 246
0.172627 0.00956443 2.43119 119 1 0
0.170666 -0.109436 2.37692 222 228 224
0.17426 -0.124731 2.36952 232 228 227
0.177573 -0.0244606 2.41325 253 239 236
0.177573 -0.0244606 2.41325 253 239 236
0.174477 -0.121249 2.3702 235 233 236
0.183828 0.0373459 2.4552 123 1 0
0.170362 -0.321238 2.26026 212 16 66
0.170362 -0.321238 2.26026 212 16 66
0.178551 -0.132734 2.36136 79 1 1
0.178189 -0.170514 2.33617 118 18 28
0.183734 -0.123708 2.36999 101 1 3
0.183734 -0.123708 2.36999 101 1 3
0.182158 -0.171818 2.33623 231 228 223
0.191138 0.0202065 2.44813 186 115 155
0.201087 0.0396796 2.47001 253 253 253
0.19251 -0.140528 2.35924 251 231 233
0.19251 -0.140528 2.35924 251 231 233
0.195684 -0.1074 2.38353 233 231 234
0.195684 -0.1074 2.38353 233 231 234
0.198946 -0.121898 2.37525 240 240 242
0.198946 -0.121898 2.37525 240 240 242
0.205274 0.010992 2.4496 254 245 250
0.205274 0.010992 2.4496 254 245 250
0.198545 -0.132647 2.36531 75 1 0
0.201366 -0.113285 2.3817 80 2 2
0.195484 -0.337835 2.26553 223 41 102
0.20733 -0.115084 2.38172 217 192 196
0.20794 -0.1294 2.37179 109 0 0
0.20794 -0.1294 2.37179 109 0 0
0.212347 -0.124351 2.37525 86 2 2
0.222301 0.004773 2.45431 251 251 251
0.227236 0.0140201 2.46127 66 0 1
0.231403 0.0378747 2.47929 112 0 0
0.239969 0.02265 2.48027 253 253 253
0.221337 -0.317615 2.26082 185 12 68
0.229183 -0.342168 2.2732 238 227 209
0.228689 -0.324748 2.26646 255 255 255
0.250984 0.0256593 2.48109 142 0 1
0.231589 -0.336914 2.27378 255 254 255
0.237466 -0.317681 2.26873 141 25 36
0.265611 0.0150393 2.48195 254 253 251
0.277826 -0.335184 2.28412 123 0 3
-0.151627 -0.223515 2.3679 131 1 0
-0.172324 -0.228591 2.37677 131 1 0
-0.16216 -0.225091 2.37654 126 0 1
-0.0591166 -0.148907 2.38439 81 0 0
-0.0341551 -0.129394 2.38911 218 188 200
0.0686043 0.0694168 2.33941 114 0 0
0.0754618 0.0708935 2.34738 252 237 230
0.0741007 0.0571166 2.34384 255 242 239
-0.011879 -0.168889 2.37597 230 220 221
0.0905013 0.0503725 2.35956 132 0 4
0.00788045 -0.146976 2.38388 215 206 211
0.0268589 -0.149833 2.38351 211 188 206
0.0950129 -0.0340905 2.3353 106 0 0
0.150358 -0.0104697 2.40053 253 248 244
0.171729 -0.00771815 2.42623 255 244 242
0.209103 0.0718116 2.47031 248 247 243
0.217441 0.00529435 2.46822 253 237 238
-0.143243 -0.136617 2.44251 253 253 253
-0.129832 -0.158593 2.41768 252 253 255
-0.111935 -0.197137 2.37963 176 0 17
-0.108712 -0.17832 2.39585 253 255 254
-0.0992824 -0.165392 2.40493 251 255 254
-0.0838839 -0.161536 2.40487 165 1 8
-0.0692688 -0.145888 2.41383 159 1 2
-0.049609 -0.171676 2.38909 255 255 255
-0.032582 -0.169819 2.3856 254 255 255
-0.0287243 -0.100435 2.4432 112 0 0
0.00920251 -0.114205 2.42304 101 1 1
0.0301826 -0.138038 2.39866 245 254 253
0.0444456 -0.142063 2.39227 108 0 2
0.0686613 -0.141884 2.38774 95 0 0
0.0798617 -0.1328 2.39228 242 239 250
0.167945 -0.102207 2.38526 93 0 0
0.179998 -0.141284 2.35324 110 0 1
-0.0466973 -0.0977427 2.44835 84 0 0
0.0217671 0.0306493 2.42921 232 230 241
-0.17557 -0.226553 2.36573 167 0 28
-0.165778 -0.166752 2.40419 99 0 0
-0.14364 -0.185198 2.39288 240 228 230
-0.139159 -0.158642 2.40941 237 227 235
-0.121744 -0.187422 2.387 120 0 2
-0.0917685 -0.174423 2.39184 254 254 254
-0.0560223 -0.131135 2.41829 74 0 3
-0.0444751 -0.141841 2.40923 245 240 244
-0.0239362 -0.149336 2.40227 81 0 0
-0.0248754 -0.136259 2.41136 78 0 0
-0.0280152 -0.11251 2.42618 219 207 221
-0.0122384 -0.111497 2.42624 53 0 1
-0.00347036 -0.12729 2.41679 222 221 235
0.043894 -0.160682 2.39085 242 243 245
0.017817 -0.105601 2.42825 204 198 212
-0.01495 -0.0904985 2.46852 213 198 219
0.0412882 -0.128658 2.41064 60 0 0
-0.00191454 -0.0691868 2.47979 38 0 0
0.0668505 -0.152578 2.39428 239 223 234
0.0107396 -0.0798256 2.47039 179 137 157
0.0495998 -0.105357 2.42551 35 1 0
0.0850623 -0.143485 2.39906 201 184 203
0.101101 -0.135382 2.40369 177 152 174
0.1035 -0.114471 2.41667 191 142 172
0.113758 -0.131996 2.40527 47 1 3
0.122631 -0.116661 2.41861 18 0 0
-0.139949 -0.219534 2.37109 142 0 0
-0.11676 -0.20818 2.3763 255 254 250
-0.0866686 -0.200796 2.37952 81 1 2
-0.0661182 -0.142248 2.39238 88 0 0
0.0590679 -0.0868125 2.41051 45 0 0
-0.0401982 -0.185819 2.38916 242 233 238
0.0745475 -0.111985 2.40412 48 0 0
-0.19357 -0.239666 2.36476 253 255 254
-0.161121 -0.228239 2.36539 195 0 34
-0.176624 -0.216393 2.38782 250 223 230
-0.185072 -0.182197 2.42474 134 0 0
-0.18253 -0.175031 2.43219 140 0 0
-0.152191 -0.168146 2.42442 240 238 239
-0.120797 -0.183576 2.40042 255 255 255
-0.0833259 -0.152826 2.4171 123 0 3
-0.0905098 -0.133224 2.44594 83 0 1
-0.0241149 -0.133907 2.4228 95 0 1
-0.0113334 -0.141862 2.41141 90 0 0
-0.0416152 -0.121985 2.44133 237 221 232
-0.0438399 -0.113091 2.44712 234 218 229
0.054201 -0.158127 2.38882 255 254 255
0.0230084 -0.131589 2.41741 69 0 2
0.00725106 -0.113392 2.43802 226 193 220
0.0193715 -0.118969 2.42999 73 0 2
0.0322583 -0.105213 2.43983 58 0 0
0.0411258 -0.111974 2.43323 57 1 0
0.0904001 -0.100738 2.44253 36 1 0
0.255748 -0.159254 2.36032 109 7 2
-0.170405 -0.195723 2.37132 250 223 230
-0.173202 -0.142569 2.3971 134 0 0
-0.169009 -0.122548 2.40611 55 1 0
-0.139785 -0.142755 2.40436 110 0 1
-0.112254 -0.164064 2.39265 254 255 255
0.00701185 -0.177919 2.38657 250 249 247
-0.0684043 -0.0373545 2.44731 31 0 0
-0.0328464 -0.082482 2.43054 240 214 227
0.0286244 -0.172583 2.38954 249 238 246
0.0678596 -0.14647 2.37813 249 237 247
0.100476 0.11684 2.44404 235 236 238
0.103232 0.105546 2.44968 5 0 1
0.135279 0.0753828 2.42912 16 0 1
0.201291 0.0199609 2.45807 255 237 235
0.211883 -0.00495832 2.45162 155 23 47
-0.00390328 0.0634713 2.27447 93 0 0
0.0732987 0.0414928 2.33745 253 249 246
0.0794789 0.0481272 2.34359 253 243 241
0.100746 0.0772993 2.37073 255 220 227
0.0843439 0.0210601 2.34384 255 230 233
0.0974192 0.0285665 2.35665 103 0 3
0.112449 0.0697997 2.38 251 248 243
0.0766554 -0.0373237 2.33036 196 6 18
0.128124 0.097415 2.40696 239 228 224
0.0826075 -0.0272989 2.33631 250 246 243
0.103287 0.0113095 2.35925 255 241 241
0.0978992 -0.00555533 2.35283 246 242 241
0.124573 0.044473 2.38347 253 246 240
0.12205 0.0305504 2.3814 76 0 2
0.103047 -0.0234523 2.35534 114 0 2
0.117787 -0.00177813 2.36941 252 247 244
0.149161 0.0829523 2.41906 229 226 219
0.132622 0.0233502 2.38963 98 0 0
0.124115 -0.00678941 2.37747 253 246 240
0.149108 0.0229318 2.40463 117 1 1
0.174462 0.0497566 2.42979 115 0 13
0.157189 -0.023148 2.4045 252 241 235
0.179689 0.00200863 2.42781 92 1 0
0.173928 -0.0156796 2.41988 91 1 1
0.126829 -0.115403 2.38098 75 0 1
0.122645 -0.139363 2.37611 85 1 0
0.158755 -0.094515 2.40466 57 0 0
0.217128 0.0329091 2.46724 253 245 242
0.177437 -0.0681585 2.42051 4 0 0
0.159227 -0.150687 2.42153 120 0 1
0.179723 -0.12058 2.43476 111 0 0
0.206227 -0.0716992 2.4584 86 0 0
0.216088 -0.0644215 2.46585 223 160 171
0.20616 -0.0873627 2.45854 225 186 204
0.215646 -0.0826681 2.46358 84 1 0
0.205265 -0.103966 2.45688 116 1 0
0.247172 -0.036592 2.49532 244 204 212
0.075448 -0.0515777 2.43068 24 0 0
0.0189221 -0.0115979 2.25148 117 1 2
0.0310284 -0.00965475 2.26708 253 252 248
0.0468315 0.011441 2.2916 79 0 0
-0.0300912 0.0223875 2.21645 252 251 246
0.0275354 -0.0183912 2.27153 246 251 247
0.0697447 0.109193 2.34489 166 1 0
0.0663236 0.0509362 2.32879 154 0 0
0.0450424 -0.0283412 2.28855 255 255 255
0.0652233 0.00349992 2.31663 254 255 253
0.0775662 0.000283271 2.32946 254 255 253
0.104838 0.0550168 2.37003 252 220 231
0.126558 0.0534297 2.39376 255 255 255
0.151311 0.0616502 2.42062 255 254 255
0.132433 -0.00811009 2.3868 161 0 6
0.159281 0.0594838 2.42969 69 4 0
0.170639 0.0586991 2.44083 33 15 3
0.193626 0.0293831 2.46151 255 252 253
0.167097 -0.0507807 2.42268 164 0 25
0.178631 -0.0490984 2.43697 185 0 16
0.190379 -0.051363 2.44951 60 0 0
0.174713 -0.157655 2.41328 251 228 234
0.199342 -0.0984614 2.4427 235 219 232
0.216288 -0.092825 2.46299 176 19 64
0.23981 -0.0262817 2.49443 245 220 224
0.216465 -0.104045 2.46141 106 0 2
0.225713 -0.0934612 2.47165 186 0 5
0.244512 -0.0559138 2.4949 171 0 0
0.249504 -0.0478545 2.50145 255 255 253
0.181166 -0.103672 2.36617 56 0 3
0.196047 -0.10362 2.34125 233 231 234
0.0781217 0.0893618 2.35599 253 227 226
0.125266 0.108624 2.29418 253 250 245
0.15381 -0.110264 2.38897 231 225 225
0.205435 -0.107873 2.35228 236 225 229
0.0968007 -0.0880738 2.37544 227 195 198
0.113142 -0.089187 2.37303 169 131 144
0.105841 0.0516604 2.24185 222 194 216
0.0970687 0.0353341 2.28735 57 1 0
0.200241 -0.105219 2.37035 236 225 229
0.110068 -0.105559 2.4164 10 0 1
