ply
format ascii 1.0
element vertex 1274
property float x
property float y
property float z
property uchar red
property uchar green
property uchar blue
end_header
-0.134476 0.416054 3.85015 190 182 173
-0.143532 0.541153 3.73257 144 132 120
-0.123642 0.425183 3.88998 125 110 98
-0.121741 0.494011 3.85933 205 192 170
-0.108466 0.393458 3.86711 181 164 142
-0.100388 0.472331 3.84379 198 188 170
-0.0894207 0.552425 3.74373 169 153 138
-0.0730823 0.591958 3.76987 200 187 164
-0.00629545 0.160243 4.04215 157 167 168
0.00338456 0.1973 4.06379 73 77 82
-0.0292682 0.600328 3.75203 91 93 89
0.00911851 -0.335447 3.71733 126 114 109
0.0169609 -0.31743 3.69632 111 105 103
0.0255624 -0.348254 3.70866 189 183 179
0.0459347 -0.429945 3.84866 148 145 141
0.0456761 -0.408715 3.83074 106 106 106
0.0622325 -0.462685 3.8445 118 124 126
0.0635563 -0.451663 3.83118 209 207 205
0.0902774 0.341703 3.9771 107 105 95
0.135715 0.0611507 4.20695 38 41 46
0.139613 0.078241 4.19032 54 58 60
0.0755036 -0.349258 3.70644 62 67 69
0.15938 0.124058 4.19644 63 68 69
0.0847769 -0.42899 3.72525 209 206 202
0.168555 0.0830889 4.1818 44 50 57
0.175915 0.0408847 4.19715 112 121 121
0.177493 0.134678 4.16899 157 167 168
0.119168 -0.545344 3.78514 182 178 174
0.120213 -0.536215 3.76978 112 105 103
0.106234 -0.400263 3.6844 127 135 133
0.111059 -0.427733 3.69856 203 199 191
0.124253 -0.544862 3.77315 86 84 86
0.133379 -0.516473 3.72318 106 104 101
0.131656 -0.495336 3.7019 205 202 194
0.132114 -0.40726 3.66198 129 138 136
0.148946 -0.60149 3.75303 183 178 173
0.148646 -0.513329 3.66506 58 60 65
0.153188 -0.505865 3.64879 58 59 63
0.153713 -0.574431 3.62123 119 125 131
0.166658 -0.539608 3.65762 45 53 62
0.161232 -0.559299 3.61711 97 100 109
0.161848 -0.49923 3.61568 44 47 54
0.162708 -0.572617 3.60346 70 76 79
0.165707 -0.582493 3.60898 114 109 109
0.164884 -0.562247 3.59746 56 64 69
0.263001 0.161485 4.10166 49 54 60
0.26539 0.242702 4.0935 62 63 61
0.175849 -0.545244 3.57215 86 84 86
0.191693 -0.49404 3.57141 102 110 114
0.302777 0.193019 4.11643 66 68 68
0.195514 -0.569765 3.56154 111 104 106
0.199937 -0.477058 3.56816 73 76 75
0.324242 0.171728 4.15568 205 193 170
0.204564 -0.474695 3.55953 65 69 72
0.215148 -0.487296 3.52272 123 128 117
0.22116 -0.457276 3.51897 138 143 140
0.351487 0.663934 4.1 193 180 159
0.227016 -0.453672 3.50658 93 89 88
0.25384 -0.569822 3.53893 150 147 148
0.252565 -0.482208 3.49693 214 210 207
0.258768 -0.556108 3.52315 146 140 139
0.256443 -0.453411 3.47224 66 78 89
0.282784 -0.479844 3.50977 105 105 98
0.407826 -0.306795 3.86537 188 184 180
0.418426 -0.271474 3.87524 70 71 73
0.60778 0.804576 4.38213 180 166 144
0.624802 0.807144 4.39764 177 163 140
0.699992 0.774473 4.54333 135 124 110
0.82984 0.842805 4.71181 103 99 89
0.854668 0.847014 4.73733 122 123 114
-0.797935 0.630485 3.72314 176 163 144
-0.716689 0.65108 3.71114 86 84 77
-0.711013 0.637465 3.71653 87 82 74
-0.433366 0.720775 3.41194 86 80 72
-0.423599 0.730852 3.41457 85 79 71
-0.345416 0.659594 3.47586 125 112 95
-0.34037 0.698191 3.46882 171 160 139
-0.310972 0.710388 3.49585 151 139 120
-0.299459 0.507891 3.72663 171 155 143
-0.281061 0.526589 3.67732 175 160 146
-0.200202 0.415164 3.85557 221 213 204
-0.156871 0.390431 3.90088 206 192 174
-0.193296 0.0252071 4.12129 63 68 70
-0.165295 -0.0349414 4.03505 130 142 145
-0.123767 0.488064 3.81704 211 200 184
-0.111998 0.403683 3.86172 119 105 97
-0.0734413 0.545611 3.77407 207 193 175
-0.0761508 0.510142 3.82781 90 86 78
-0.0452232 0.556247 3.77663 77 82 85
-0.0291874 0.584749 3.76216 94 95 90
0.0166893 -0.343029 3.71694 180 173 167
0.0210897 -0.238728 3.70708 128 139 141
0.0317148 0.333929 3.92099 68 70 71
0.0323798 0.262279 3.94706 37 41 52
0.0354046 0.284628 3.93239 40 46 58
0.0714818 -0.321244 3.68159 195 192 186
0.10458 -0.325592 3.66763 125 134 135
0.0731138 0.220739 3.99926 101 99 88
0.106082 -0.446175 3.7175 135 145 148
0.115911 -0.406245 3.67706 138 144 142
0.0988817 0.342584 3.96846 52 56 58
0.185471 -0.566803 3.56949 195 188 180
0.193032 -0.573992 3.57136 117 111 112
0.206466 -0.577049 3.56279 141 134 131
0.210748 -0.546982 3.52646 206 203 200
0.167464 0.0710186 4.19121 29 34 43
0.220132 -0.586983 3.57261 137 132 133
0.233466 -0.496917 3.5157 182 177 174
0.193085 0.16974 4.0556 84 89 93
0.246967 -0.415319 3.44863 129 130 135
0.245373 -0.509934 3.50444 89 86 82
0.245543 -0.56255 3.55679 188 184 181
0.272326 -0.467711 3.50235 98 94 84
0.22986 0.110073 4.14668 30 36 47
0.244906 0.122799 4.14035 31 40 51
0.290614 -0.470125 3.52419 83 84 80
0.304153 -0.503226 3.52074 70 73 74
0.28504 0.208743 4.10659 108 107 96
0.287054 0.158797 4.12298 34 42 55
0.318459 -0.455631 3.59738 110 114 112
0.323852 -0.55221 3.5622 162 158 153
0.325294 -0.538234 3.55861 59 67 75
0.333764 -0.538449 3.56999 169 166 164
0.334879 -0.549252 3.57513 162 159 155
0.337601 -0.570465 3.60075 141 134 131
0.348844 -0.5474 3.58812 50 57 64
0.339537 0.634951 4.1278 202 187 167
0.36477 -0.576625 3.66244 196 189 184
0.353224 0.130084 4.23569 175 156 133
0.362894 0.199779 4.21208 123 126 115
0.370137 0.693806 4.10534 129 121 108
0.380555 -0.331181 3.86523 177 171 167
0.382451 -0.324597 3.87291 81 87 90
0.3832 -0.289156 3.86026 86 89 88
0.385432 -0.337214 3.87423 185 179 174
0.386169 -0.315018 3.8683 94 91 89
0.387883 -0.269755 3.85792 173 167 160
0.388036 -0.298218 3.86432 80 81 80
0.386699 -0.381868 3.92585 194 192 190
0.395227 -0.318843 3.87147 186 180 173
0.412124 -0.275895 3.86268 60 62 63
0.407444 0.696446 4.14215 181 166 145
0.422538 -0.28932 3.88321 55 60 65
0.423279 0.16204 4.28269 185 174 151
0.43286 0.706819 4.19207 198 183 162
0.445614 0.716451 4.21912 199 185 165
0.473665 0.746243 4.23579 203 193 175
0.518897 0.731413 4.32225 161 144 129
0.557033 0.748001 4.36615 150 136 127
0.574463 0.750161 4.37696 158 142 132
0.621843 0.806082 4.38406 181 167 144
0.640455 0.806445 4.41066 108 106 96
0.702354 0.800341 4.52703 150 138 119
0.716072 0.801044 4.53988 98 94 85
0.717733 0.790662 4.54711 173 159 137
0.727568 0.786145 4.56973 193 179 160
0.727871 0.806915 4.55863 97 94 87
0.744605 0.777608 4.65015 190 175 155
0.798707 0.796643 4.6948 211 196 177
0.806493 0.828014 4.68828 129 115 99
0.871082 0.839069 4.7441 185 173 155
0.879475 0.830652 4.76405 202 188 167
0.885205 0.848365 4.78085 130 129 115
0.181177 0.0788958 4.18255 28 34 45
0.340564 -0.514685 3.58611 87 100 107
0.0852595 -0.330081 3.69189 115 125 127
-0.229631 0.40087 3.86516 165 148 129
-0.020703 0.222879 4.10119 157 167 168
0.0248521 0.277881 3.94988 44 45 47
0.225179 -0.44208 3.50477 148 145 132
-0.820532 0.655379 3.73331 112 107 91
-0.689977 0.615041 3.69117 191 177 165
-0.22897 -0.0265053 4.22278 62 67 71
-0.310756 0.517301 3.70897 165 153 144
-0.217639 -0.0514944 4.16844 101 99 101
-0.344767 0.583142 3.49865 185 171 151
-0.309482 0.529067 3.67756 152 135 124
-0.218442 0.0107643 4.15048 52 63 69
-0.208703 -0.0421814 4.12838 49 57 61
-0.202067 0.0188937 4.13481 121 132 136
-0.330058 0.70413 3.4758 161 148 125
-0.19743 -0.0463241 4.11264 70 72 74
-0.19314 -0.0471849 4.10137 172 172 170
-0.273979 0.522212 3.68927 176 159 148
-0.174722 -0.0642678 4.00201 170 173 175
-0.191611 0.40734 3.85083 218 210 201
-0.135047 -0.0144728 4.01197 68 74 76
-0.20478 0.553309 3.66751 96 94 89
-0.138236 0.336818 3.9322 222 216 207
-0.17516 0.549582 3.69561 190 176 157
-0.117024 0.321467 3.92491 85 86 82
-0.106617 0.337444 3.90478 90 90 83
-0.091777 0.354125 3.88823 103 102 91
-0.0873403 0.508623 3.82149 205 192 171
-0.00603519 0.208279 4.09213 66 70 71
-0.00190959 0.23014 4.0941 157 167 168
0.00122026 0.211664 4.03338 44 47 50
0.00462159 0.228454 4.02334 48 47 49
0.0064985 0.224811 4.00868 97 100 95
0.0104121 0.237841 3.99887 35 38 45
0.0145908 0.240384 3.98771 87 87 84
0.0164428 0.245638 3.97653 92 93 87
0.0833101 0.315522 3.97408 100 99 93
0.0549517 -0.464571 3.85757 205 201 198
0.160472 0.0592019 4.20539 156 166 167
0.157449 0.118261 4.187 68 74 75
0.0555957 -0.418465 3.82088 196 192 189
0.166015 0.133015 4.19519 64 69 71
0.042521 -0.387926 3.76052 190 183 179
0.108334 0.293024 3.98413 115 113 101
0.0738089 -0.489267 3.85662 166 163 160
0.0301627 -0.264816 3.68698 51 55 58
0.0700147 -0.442203 3.82373 116 125 128
0.0688004 -0.452114 3.8117 216 215 213
0.0824448 -0.48738 3.83464 199 197 194
0.0601748 -0.367036 3.75327 219 216 213
0.0806583 -0.43845 3.75435 191 189 185
0.10032 -0.512612 3.79664 157 151 144
0.21977 0.145594 4.15931 64 67 64
0.112815 -0.526338 3.78243 175 170 167
0.098619 -0.331425 3.68714 118 125 123
0.10346 -0.384266 3.69192 127 134 132
0.125252 -0.543585 3.76087 67 66 71
0.104538 -0.350632 3.68574 200 196 189
0.102 -0.31044 3.67334 176 172 164
0.114907 -0.444756 3.70824 136 145 147
0.133605 -0.561291 3.768 42 49 54
0.123805 -0.501435 3.73401 204 202 198
0.247793 0.282819 4.12443 153 163 165
0.14614 -0.589701 3.7511 86 93 96
0.133751 -0.503433 3.70914 152 155 153
0.13084 -0.325905 3.65734 188 187 184
0.141582 -0.500113 3.68172 206 201 192
0.136533 -0.462984 3.66459 132 139 135
0.136124 -0.425068 3.65431 138 144 139
0.2806 0.250138 4.09697 157 167 168
0.151241 -0.572767 3.69213 93 89 92
0.14125 -0.478849 3.64807 162 165 162
0.152199 -0.589467 3.67416 88 92 96
0.303702 0.185231 4.12405 40 46 52
0.151102 -0.459937 3.63236 187 184 176
0.157572 -0.496178 3.62969 121 126 127
0.398927 0.158573 4.25915 198 186 165
0.374526 0.710347 4.11876 167 157 137
0.185107 -0.511309 3.56809 36 41 49
0.184573 -0.563888 3.55953 201 197 194
0.203713 -0.483682 3.5494 110 115 108
0.495477 0.776779 4.25709 133 123 108
0.502938 0.786894 4.26208 200 189 172
0.258235 -0.590151 3.56133 192 187 185
0.26683 -0.533591 3.51554 158 149 143
0.592531 0.834572 4.37018 104 103 95
0.276148 -0.52837 3.51562 150 145 139
0.631294 0.761211 4.44971 157 139 129
-0.479389 0.719865 3.38822 79 75 70
-0.481053 0.733538 3.39226 61 62 62
-0.421128 0.72159 3.40913 183 169 145
-0.389504 0.72086 3.43203 102 88 79
-0.383662 0.729425 3.43294 169 155 132
-0.374633 0.7359 3.44062 107 103 92
-0.350689 0.737565 3.46447 71 70 68
-0.345893 0.614307 3.48578 133 117 107
-0.31804 0.625664 3.50366 130 114 100
-0.328863 0.529794 3.68615 135 116 101
-0.31185 0.514442 3.72166 208 196 184
-0.28631 0.506434 3.72338 166 152 141
-0.202205 0.415607 3.86653 219 210 199
-0.177857 0.396408 3.86391 209 198 183
-0.141006 0.39695 3.8656 208 198 189
-0.124907 0.419965 3.84403 123 108 96
-0.113647 0.435215 3.85088 100 96 85
-0.0757189 0.584144 3.74064 213 203 187
-0.0750419 0.545957 3.7846 208 194 178
0.0516374 -0.337458 3.68562 192 188 182
0.066692 -0.339594 3.69071 141 131 123
0.0738124 -0.37815 3.72301 207 201 193
0.0924293 -0.311113 3.68093 188 185 177
0.0589102 0.24958 3.96181 82 82 82
0.105355 0.248766 3.97534 62 69 75
0.208734 -0.567246 3.54747 198 190 182
0.21669 -0.559818 3.54168 131 124 124
0.227275 -0.556833 3.52795 204 203 202
0.258384 -0.438291 3.46307 67 74 84
0.250219 -0.53643 3.50812 105 98 96
0.246498 -0.5599 3.54343 179 174 171
0.296031 -0.468357 3.5367 114 122 121
0.30755 -0.542497 3.5322 180 174 169
0.317849 -0.485596 3.57207 120 129 128
0.201971 0.0922078 4.16767 33 38 46
0.331291 -0.580684 3.60267 145 137 133
0.24421 0.252198 4.09419 71 72 71
0.341395 -0.555546 3.58853 130 124 122
0.342417 -0.529031 3.59107 173 164 151
0.237069 0.107581 4.15932 158 167 167
0.344155 -0.57294 3.6131 194 188 181
0.250338 0.113265 4.15545 157 166 166
0.355334 -0.546685 3.59914 57 63 69
0.362116 -0.543416 3.61601 51 59 66
0.277541 0.237146 4.09034 41 48 56
0.307269 0.639163 4.10307 75 79 82
0.382311 -0.263702 3.86452 44 52 56
0.335686 0.193798 4.17088 114 116 109
0.380905 -0.384025 3.91533 124 133 136
0.319073 0.0855226 4.2974 202 187 172
0.350908 0.187344 4.18901 115 113 98
0.411465 -0.295419 3.86232 75 77 79
0.363971 0.19973 4.17887 124 125 115
0.368626 0.0948542 4.31551 209 202 198
0.379377 0.12043 4.2688 176 159 143
0.399831 0.685204 4.21973 205 192 171
0.410913 0.712322 4.14323 116 116 104
0.420492 0.700882 4.16133 144 134 119
0.413333 0.144586 4.27865 195 181 160
0.425016 0.151548 4.28686 128 123 109
0.481068 0.706304 4.33661 168 153 135
0.495424 0.724145 4.31049 193 177 155
0.503998 0.791675 4.25044 111 115 108
0.586201 0.751842 4.39106 155 139 129
0.629518 0.758714 4.4299 161 141 131
0.647113 0.784435 4.46471 204 187 164
0.65469 0.824564 4.41418 100 98 92
0.657677 0.820199 4.44724 106 102 90
0.660347 0.785235 4.4371 203 190 167
0.66441 0.74527 4.48425 205 191 168
0.669542 0.783512 4.47473 108 106 96
0.671616 0.769012 4.47779 191 175 151
0.67809 0.754428 4.57271 131 118 104
0.69219 0.79896 4.50708 99 95 85
0.70986 0.810808 4.53956 142 130 111
0.718252 0.818664 4.55041 100 97 88
0.786978 0.819453 4.66445 97 95 88
0.807209 0.832517 4.67697 138 127 112
0.812001 0.842336 4.68381 113 108 96
0.812718 0.816141 4.69675 147 135 117
0.87351 0.847738 4.75508 113 115 107
-0.156372 0.389157 3.88849 206 192 171
0.0794701 -0.28308 3.67102 199 195 189
0.256876 0.122672 4.14142 47 54 63
0.454203 0.714271 4.23576 140 127 110
0.451562 0.68453 4.33915 202 186 168
0.625585 0.829962 4.41198 106 105 97
-0.790639 0.641752 3.72089 147 133 117
-0.189461 0.40935 3.86086 218 210 201
-0.0130211 0.193288 4.07423 44 51 61
0.0934196 0.342176 3.98832 112 112 101
0.0195044 -0.254429 3.69046 53 56 58
0.121255 0.266307 3.98326 112 113 104
0.10398 -0.510253 3.78702 142 138 134
0.152602 -0.496729 3.64313 130 135 134
0.169834 -0.542774 3.66737 47 56 65
0.156635 -0.567794 3.61343 54 61 66
-0.723818 0.622331 3.71199 220 212 205
-0.697902 0.626405 3.69233 84 82 76
-0.6826 0.571221 3.62199 183 170 152
-0.232732 -0.0261703 4.21081 59 63 66
-0.224751 -0.0184838 4.20322 44 50 54
-0.224367 -0.0536429 4.20309 106 101 102
-0.223271 -0.0468208 4.18243 112 106 107
-0.221404 -0.0294689 4.18591 47 53 56
-0.212115 -0.0426531 4.11796 46 53 56
-0.338909 0.513057 3.72699 203 192 181
-0.330636 0.499002 3.7382 215 208 202
-0.318691 0.508824 3.71593 204 191 178
-0.281633 0.493662 3.74658 170 158 149
-0.220814 0.418192 3.84437 223 214 202
-0.184832 0.409916 3.86983 217 209 200
-0.247572 0.553778 3.64263 98 93 84
-0.1206 0.354837 3.89429 217 209 198
-0.0113004 0.186802 4.06468 157 167 169
-0.00446983 0.174021 4.01407 37 43 55
0.148253 0.0864438 4.18881 56 59 59
0.165 0.118764 4.20515 63 68 70
0.0930161 0.358188 3.9993 109 109 102
0.0332735 -0.413714 3.85056 123 122 120
0.0889253 0.236251 3.9775 53 56 61
0.0906517 0.32631 3.96333 49 54 57
0.119199 0.239846 3.98448 118 118 104
0.0115357 -0.333149 3.70775 161 151 143
0.0687382 -0.413895 3.80839 106 115 119
0.020987 -0.291497 3.69222 51 55 60
0.0814112 -0.475436 3.83122 198 197 194
0.0293507 -0.33393 3.68987 127 118 116
0.0649746 -0.400095 3.76314 72 80 83
0.08151 -0.469448 3.80083 104 105 102
0.0775455 -0.441043 3.78076 187 184 180
0.0654482 -0.408259 3.75042 198 191 182
0.0544157 -0.30834 3.67289 48 52 56
0.0853773 -0.421486 3.73717 204 200 194
0.248348 0.227331 4.09353 121 122 113
0.0969029 -0.479852 3.74529 143 144 136
0.0867095 -0.410155 3.72157 135 140 138
0.258984 0.192746 4.09915 47 50 54
0.129139 -0.56689 3.79802 182 175 169
0.382119 0.092615 4.32161 163 145 134
0.297619 0.168216 4.12466 71 76 80
0.0988554 -0.363762 3.68596 140 142 136
0.141359 -0.586505 3.77113 95 99 101
0.13405 -0.569398 3.744 43 50 54
0.124847 -0.479605 3.69712 210 207 202
0.136985 -0.514991 3.70516 75 74 75
0.144729 -0.499852 3.66335 101 108 110
0.14533 -0.49164 3.65577 206 202 195
0.151194 -0.577073 3.64972 48 55 60
0.154096 -0.589974 3.65557 117 113 111
0.164557 -0.511648 3.65674 55 57 64
0.162977 -0.5092 3.60755 108 115 123
0.172952 -0.581498 3.59299 206 203 202
0.179933 -0.551772 3.56436 54 59 65
0.209574 -0.452714 3.54904 91 88 85
0.199247 -0.529158 3.52475 73 78 79
0.241297 -0.452703 3.47233 116 109 112
0.276878 -0.560153 3.53377 109 102 105
0.241726 -0.398136 3.46035 93 98 102
-0.665572 0.730779 3.31059 190 176 155
-0.652008 0.728557 3.30977 121 107 94
-0.648327 0.719431 3.31316 178 164 141
-0.633184 0.720127 3.31422 190 175 153
-0.633627 0.70888 3.31638 170 155 134
-0.608372 0.71474 3.31995 176 162 139
-0.580826 0.720897 3.33272 173 158 137
-0.568457 0.720185 3.33362 168 156 137
-0.817134 0.633475 3.74594 201 188 168
-0.798125 0.643051 3.7361 149 136 119
-0.795893 0.628795 3.73517 174 160 140
-0.777179 0.63856 3.73207 100 96 87
-0.676847 0.564392 3.63057 204 193 175
-0.44454 0.743739 3.40399 147 129 110
-0.418553 0.751221 3.41195 94 89 79
-0.404795 0.746572 3.41762 178 162 140
-0.403697 0.736377 3.42137 125 110 97
-0.393727 0.755597 3.42594 163 149 127
-0.38306 0.740539 3.43034 114 112 98
-0.348965 0.73762 3.47877 82 80 75
-0.310235 0.561592 3.6164 205 192 179
-0.33444 0.495681 3.75859 208 197 183
-0.305851 0.486628 3.76137 215 209 203
-0.254521 0.418762 3.83226 212 202 187
-0.233122 0.433507 3.82923 145 130 118
-0.185086 0.428373 3.84594 153 138 130
-0.183656 0.443036 3.8447 208 198 188
-0.181958 0.39733 3.87707 207 194 176
-0.182088 0.382056 3.88483 135 128 111
-0.116341 0.549686 3.74272 221 213 204
-0.159655 0.40726 3.86567 140 129 124
-0.158591 0.377358 3.89314 208 194 174
-0.0739571 0.622963 3.70452 117 116 101
-0.0607815 0.624802 3.71793 115 114 99
-0.0778676 0.545776 3.79442 205 191 177
-0.0583018 0.57019 3.76736 218 210 201
0.0766929 -0.377656 3.71177 205 199 190
0.204565 -0.55417 3.53452 127 117 117
0.23155 -0.568639 3.53654 132 122 120
0.0591407 0.242453 3.98532 33 36 43
0.255077 -0.506919 3.49868 180 171 162
0.256176 -0.501936 3.50877 191 182 170
0.261519 -0.539572 3.50935 119 110 107
0.277709 -0.459034 3.51138 62 65 67
0.283473 -0.507164 3.50358 64 64 66
0.290265 -0.527403 3.51039 103 98 98
0.300785 -0.524417 3.51265 148 146 145
0.281462 -0.427921 3.57532 81 85 85
0.303823 -0.49415 3.51586 64 69 72
0.295756 -0.453385 3.55805 120 123 106
0.317564 -0.516944 3.53561 88 95 100
0.317699 -0.548539 3.54392 123 118 117
0.311889 -0.577322 3.57182 128 120 119
0.331997 -0.557838 3.57004 177 171 166
0.344775 -0.54418 3.57621 127 128 130
0.175756 0.183061 4.06746 54 54 54
0.33622 -0.447267 3.63605 136 148 151
0.338559 -0.45739 3.63749 109 120 125
0.354993 -0.53762 3.59403 140 138 138
0.139725 0.0680411 4.23115 32 37 45
0.353611 -0.560915 3.60852 165 161 158
0.35308 -0.569116 3.6236 104 100 102
0.359904 -0.533776 3.60303 57 60 66
0.196399 0.178341 4.08423 33 35 41
0.205396 0.175136 4.08902 40 40 43
0.241803 0.123279 4.15759 37 44 55
0.367515 -0.35365 3.89225 81 90 100
0.380281 -0.309118 3.85947 80 85 87
0.384062 -0.284021 3.84676 134 127 123
0.302889 0.176412 4.13776 112 107 92
0.314411 0.197767 4.12113 58 63 68
0.300865 0.155255 4.16728 115 109 94
0.403206 -0.317418 3.88144 211 208 204
0.341109 0.634961 4.11752 202 187 170
0.297968 0.0916911 4.29983 214 204 192
0.416924 -0.282756 3.90225 59 61 65
0.308615 0.113697 4.27102 217 210 204
0.305895 0.0872171 4.29456 221 213 204
0.370542 0.679226 4.11107 192 181 163
0.366793 0.659544 4.14219 198 183 162
0.329564 0.0781533 4.32281 216 208 200
0.356885 0.202861 4.2246 124 126 116
0.341343 0.0948838 4.3106 87 84 78
0.348991 0.101585 4.30759 214 208 201
0.355736 0.108961 4.29495 170 154 143
0.359286 0.0883973 4.32513 212 204 197
0.384613 0.15797 4.23819 203 190 174
0.383578 0.141464 4.25146 215 204 187
0.408072 0.676224 4.16256 208 194 174
0.368788 0.077887 4.34443 216 206 196
0.383982 0.113171 4.28786 172 157 135
0.393376 0.123514 4.28076 172 154 135
0.42723 0.692141 4.20473 144 129 115
0.401042 0.109455 4.31969 211 202 193
0.428227 0.676462 4.30652 65 74 84
0.436332 0.144785 4.30858 120 116 104
0.480442 0.79008 4.22634 144 140 127
0.478318 0.731463 4.24902 200 186 164
0.501877 0.829374 4.2969 107 107 100
0.508589 0.841132 4.28645 49 53 55
0.518147 0.747686 4.29696 123 114 101
0.554747 0.769952 4.32981 203 187 169
0.594141 0.767046 4.38276 168 152 131
0.621207 0.757125 4.41712 155 140 131
0.655833 0.791979 4.42372 182 169 147
0.668433 0.835219 4.45993 99 99 93
0.667204 0.758754 4.49994 108 104 94
0.726751 0.791894 4.56021 127 118 101
0.799613 0.792215 4.6732 213 200 182
-0.595335 0.703802 3.32422 119 109 95
-0.334682 0.618639 3.49365 134 119 103
0.244262 0.129122 4.11734 68 77 83
0.40054 0.680381 4.19024 208 194 174
0.708439 0.839155 4.54071 95 92 85
0.777969 0.82402 4.64792 191 178 164
0.798012 0.793993 4.68372 213 200 182
-0.784334 0.631977 3.72447 97 95 87
-0.770126 0.637129 3.72113 100 96 87
-0.483737 0.764712 3.38854 66 67 68
-0.457437 0.762879 3.40214 72 65 60
-0.416292 0.769865 3.41514 195 173 149
-0.417601 0.713227 3.42547 180 165 141
-0.411077 0.755561 3.41966 97 89 77
-0.372001 0.768642 3.44187 98 96 85
-0.362633 0.767364 3.45017 156 142 121
-0.346218 0.755661 3.47528 82 78 73
-0.331347 0.564879 3.53079 215 205 194
-0.287535 0.596949 3.54252 169 147 127
-0.347253 0.503503 3.74248 192 181 171
-0.17559 0.406237 3.86185 153 134 120
-0.149757 0.454047 3.84158 208 197 183
-0.14753 0.410639 3.86301 114 103 99
0.0873815 -0.297058 3.66626 173 172 169
0.261053 -0.436501 3.44681 61 70 80
0.239039 -0.511894 3.49326 92 86 84
0.26382 -0.445351 3.45557 181 177 178
0.256989 -0.417227 3.47494 88 91 93
0.256907 -0.494589 3.49453 78 78 73
0.257367 -0.521313 3.49771 157 151 146
0.273424 -0.475928 3.48784 101 101 96
0.27283 -0.487569 3.49086 114 117 109
0.275358 -0.462816 3.49256 93 93 87
0.282487 -0.471826 3.49349 185 175 161
0.280461 -0.491854 3.49749 74 73 71
0.27864 -0.45359 3.50244 112 121 121
0.293478 -0.49512 3.50209 52 55 58
0.30047 -0.509089 3.50313 121 119 116
0.285768 -0.429586 3.59159 91 93 87
0.0888899 0.289829 3.97318 108 107 98
0.308791 -0.456068 3.56675 62 65 68
0.30934 -0.479285 3.56616 56 62 66
0.315205 -0.485676 3.55613 53 60 62
0.331049 -0.529739 3.55441 146 146 149
0.0882792 0.360397 4.01236 78 84 88
0.332878 -0.546282 3.56012 79 84 88
0.34278 -0.513268 3.576 86 99 107
0.34393 -0.451798 3.65063 132 145 149
0.349097 -0.453717 3.68708 135 147 150
0.372482 -0.566056 3.66387 171 169 166
0.199879 0.162468 4.06093 36 43 53
0.225452 0.147097 4.10029 33 40 50
0.376738 -0.24642 3.8544 154 158 160
0.264989 0.150498 4.1181 71 77 81
0.267764 0.144405 4.13137 32 39 49
0.265805 0.13371 4.14972 157 166 166
0.381109 -0.355364 3.93962 92 96 103
0.384304 -0.357581 3.94919 147 163 176
0.420573 -0.30616 3.86855 87 81 81
0.301572 0.190423 4.13243 57 61 65
0.39164 -0.384557 3.9422 203 200 198
0.387282 -0.370625 3.95268 114 125 129
0.322285 0.193668 4.1612 123 122 106
0.361689 0.716079 4.09749 84 81 75
0.373775 0.655051 4.11774 200 184 164
0.321496 0.118935 4.27468 117 103 92
0.342137 0.232979 4.23503 95 94 88
0.329364 0.11019 4.28667 88 83 77
0.334302 0.0873318 4.31352 216 209 200
0.37788 0.160315 4.22793 209 197 176
0.407709 0.127982 4.28393 224 217 208
0.4402 0.72309 4.19595 181 164 142
0.448059 0.707352 4.22634 144 133 115
0.425974 0.130281 4.30485 161 145 121
0.444029 0.692973 4.26019 152 136 125
0.452417 0.700509 4.27461 210 201 192
0.477114 0.753442 4.2282 142 131 114
0.507056 0.782142 4.24971 183 177 163
0.585769 0.756895 4.37324 202 189 165
0.660995 0.817083 4.42426 108 104 90
0.66976 0.771967 4.48924 192 175 152
0.650953 0.739966 4.56339 213 201 185
0.699075 0.778654 4.51914 199 184 163
0.716565 0.822781 4.563 103 101 91
0.724685 0.838468 4.55294 92 88 80
0.799426 0.820718 4.66749 188 173 154
0.856641 0.836376 4.72288 187 176 159
0.872783 0.849027 4.76742 107 107 101
0.881766 0.827594 4.74761 202 188 167
-0.352002 0.759093 3.46499 85 81 75
-0.261608 0.703279 3.55437 104 104 95
-0.0856458 0.521572 3.80765 197 186 168
-0.116803 0.435938 3.86158 98 94 84
0.368797 0.657421 4.1293 200 184 164
0.447643 0.68863 4.36996 206 191 173
0.685795 0.779619 4.50777 181 164 141
0.773779 0.824234 4.6224 187 175 155
0.657278 0.818816 4.43591 108 104 90
0.750185 0.812185 4.59199 122 118 104
-0.635702 0.729832 3.31698 186 173 150
-0.486032 0.721541 3.39894 64 63 60
-0.486721 0.735678 3.40117 59 60 62
-0.440494 0.749809 3.41199 178 163 140
-0.428605 0.725155 3.42257 184 170 146
-0.416825 0.789945 3.41208 72 68 64
-0.401684 0.749699 3.42828 175 162 140
-0.398277 0.766577 3.43203 165 145 124
-0.38853 0.74319 3.43851 113 111 97
-0.349323 0.692514 3.46951 111 108 96
-0.339014 0.707018 3.48338 165 151 130
-0.322875 0.706557 3.4944 185 168 144
-0.33794 0.572102 3.51931 207 195 178
-0.312317 0.57651 3.54269 208 197 181
-0.288695 0.54597 3.63804 135 120 101
-0.287552 0.469094 3.7957 186 170 148
0.022951 -0.304778 3.70396 76 82 86
0.244723 -0.414404 3.43544 140 164 182
0.248751 -0.398476 3.43081 141 162 179
0.250877 -0.433551 3.44363 110 109 115
0.254056 -0.424563 3.44 149 148 151
0.0690001 -0.335081 3.67575 177 170 164
0.066603 -0.361603 3.69938 214 210 205
0.264686 -0.456275 3.46609 137 131 133
0.257099 -0.477271 3.48133 212 208 204
0.135904 -0.301492 3.642 174 177 176
0.264271 -0.504763 3.49406 87 91 90
0.260936 -0.5514 3.50245 180 174 168
0.278272 -0.450098 3.4814 67 69 73
0.27654 -0.433798 3.49577 122 128 124
0.301182 -0.488058 3.50476 122 132 132
0.288994 -0.44499 3.52286 130 135 124
0.308401 -0.501618 3.50725 69 72 73
0.319039 -0.530853 3.52206 138 136 134
0.307774 -0.479473 3.54368 93 97 95
0.316796 -0.501179 3.53554 94 103 109
0.302941 -0.461807 3.55585 55 56 58
0.32911 -0.550806 3.54492 181 176 171
0.0333667 0.301096 3.94022 58 64 68
0.330805 -0.557272 3.55292 141 136 135
0.317103 -0.436453 3.59197 130 139 139
0.348424 -0.528433 3.57591 179 171 163
0.0497236 0.221134 3.98655 86 89 86
0.334472 -0.459489 3.61418 58 63 65
0.363767 -0.544276 3.59391 146 139 137
0.36637 -0.549163 3.60787 190 187 186
0.370334 -0.547406 3.62683 45 53 60
0.368814 -0.557073 3.63591 85 87 92
0.370819 -0.543594 3.64144 80 90 97
0.371619 -0.57594 3.65162 201 197 194
0.376243 -0.563858 3.67506 106 117 122
0.375402 -0.572115 3.6823 175 172 168
0.360925 -0.475848 3.72407 105 114 116
0.374202 -0.567074 3.70734 105 111 114
0.359927 -0.474365 3.73978 71 79 87
0.371097 -0.494906 3.76307 88 96 102
0.373911 -0.576126 3.76087 201 197 194
0.371881 -0.48572 3.77369 57 62 67
0.379193 -0.538134 3.77477 130 134 138
0.373192 -0.459452 3.79693 94 103 110
0.378372 -0.305293 3.84435 139 140 140
0.383216 -0.253266 3.86883 66 70 71
0.390728 -0.32724 3.86574 163 154 148
0.400706 -0.266551 3.85477 129 140 142
0.258596 0.251433 4.1041 80 85 87
0.417933 -0.261763 3.86646 89 96 98
0.398741 -0.208244 3.91054 61 65 69
0.314908 0.626014 4.12476 71 79 87
0.304093 0.165702 4.15446 97 97 90
0.340696 0.192974 4.15916 115 114 104
0.382342 0.651997 4.09769 198 183 165
0.365988 0.12877 4.25796 211 200 188
0.388444 0.165754 4.23097 193 180 157
0.374311 0.123174 4.25871 189 175 158
0.394317 0.129324 4.26479 182 164 142
0.446847 0.715638 4.20662 201 187 167
0.435165 0.671618 4.28481 64 72 82
0.438342 0.153349 4.30028 167 156 136
0.444336 0.12138 4.33716 134 124 111
0.499662 0.721731 4.29142 200 185 166
0.560752 0.748224 4.34962 153 138 129
0.589217 0.735373 4.40809 100 97 87
0.614195 0.81437 4.36637 176 161 139
0.624451 0.806182 4.37151 175 160 137
0.630877 0.827599 4.3934 102 99 90
0.648989 0.798307 4.40612 175 163 141
0.65811 0.800032 4.4134 114 111 97
0.672073 0.834171 4.4468 97 96 89
0.672266 0.777521 4.46704 193 179 157
0.669756 0.758106 4.49021 113 107 96
0.693108 0.827034 4.46767 98 93 85
0.687292 0.763703 4.50878 108 105 94
0.695005 0.798802 4.49551 98 93 81
0.681488 0.752654 4.55544 131 116 103
0.68183 0.745355 4.56747 218 208 191
0.713037 0.809752 4.5247 144 131 111
0.718693 0.79963 4.52783 97 91 80
0.72065 0.789866 4.53535 178 163 141
0.730658 0.806071 4.5456 92 88 80
0.729371 0.791198 4.54995 128 118 101
0.743309 0.813919 4.56231 99 96 87
0.753484 0.811402 4.5802 124 120 106
0.741423 0.772907 4.66635 213 202 187
0.776502 0.823152 4.61249 188 176 155
0.769758 0.796336 4.63418 178 163 144
0.790402 0.840121 4.64021 201 191 172
0.797827 0.840183 4.64921 174 158 136
0.802089 0.819386 4.65754 190 175 156
0.814012 0.841774 4.67136 107 101 88
0.816324 0.814088 4.6788 126 117 102
0.824359 0.830448 4.68104 181 166 144
0.829391 0.839604 4.68466 105 101 90
0.843645 0.833698 4.69492 134 127 111
0.875461 0.836447 4.72386 185 173 155
0.897547 0.851044 4.77914 105 104 97
0.376872 0.653579 4.10682 198 183 165
0.397142 0.107536 4.33497 220 213 204
0.84497 0.827549 4.70509 198 186 165
-0.499442 0.744529 3.39285 50 54 59
0.87164 0.838046 4.73397 185 173 155
-0.42464 0.775925 3.41851 86 71 67
-0.414107 0.777781 3.42308 196 179 161
-0.379497 0.754642 3.44403 162 149 127
-0.359578 0.691336 3.46674 177 163 141
-0.346571 0.701813 3.47664 171 161 140
-0.311115 0.621125 3.5271 147 136 116
-0.326361 0.578763 3.55728 208 197 181
-0.253016 0.43713 3.80803 142 122 112
-0.158547 0.549741 3.71731 209 197 184
-0.157593 0.540172 3.76404 181 165 146
-0.167513 0.439874 3.83214 170 157 147
-0.191792 0.386332 3.87103 168 155 134
-0.174324 0.375806 3.8785 132 124 108
-0.141923 0.406497 3.85573 111 101 98
-0.101828 0.479297 3.81116 199 186 165
-0.143977 0.383774 3.866 203 188 166
-0.0528745 0.570054 3.75773 217 210 200
-0.0917397 0.496576 3.81361 215 205 191
-0.0792699 0.533334 3.81757 115 103 92
-0.115063 0.377268 3.86755 197 183 160
-0.111109 0.348396 3.88501 202 189 165
0.252474 -0.390981 3.43834 143 166 183
0.231339 -0.521266 3.49391 169 162 153
0.242844 -0.550669 3.50444 174 166 159
0.261836 -0.532971 3.49565 160 152 147
0.286478 -0.480927 3.49046 114 117 111
0.28866 -0.507386 3.49261 66 65 68
0.289276 -0.538503 3.50127 118 110 107
0.303171 -0.519384 3.50016 63 67 72
0.296043 -0.462713 3.51994 64 68 72
0.305128 -0.545583 3.51192 192 187 181
0.319306 -0.505817 3.52351 56 62 67
0.320547 -0.548202 3.52748 133 128 126
0.325485 -0.527946 3.52917 88 95 96
0.332165 -0.537842 3.53984 48 52 58
0.00622591 0.193738 3.98562 157 166 166
0.0176174 0.203998 3.98214 58 60 69
0.3247 -0.477033 3.5765 48 51 56
0.339247 -0.561586 3.55768 191 186 181
0.344207 -0.567978 3.58494 146 139 134
0.357999 -0.57106 3.61412 100 97 99
0.363145 -0.521999 3.62444 86 97 100
0.365438 -0.574573 3.63667 199 195 192
0.358335 -0.46835 3.64729 53 58 64
0.376557 -0.551984 3.64658 59 65 70
0.377004 -0.556031 3.66731 79 87 93
0.35493 -0.465551 3.70709 126 135 133
0.0983877 0.384554 4.07603 158 166 166
0.376484 -0.55385 3.68747 156 151 149
0.0979942 0.378479 4.09066 75 84 87
0.343835 -0.435761 3.74471 134 148 154
0.117138 0.359881 4.08912 36 43 52
0.377088 -0.572615 3.72322 190 184 179
0.383392 -0.560173 3.776 138 134 130
0.376356 -0.428028 3.8469 143 148 151
0.375573 -0.460305 3.87482 148 144 140
0.3719 -0.355691 3.88335 79 88 97
0.373272 -0.47489 3.89309 94 102 107
0.376074 -0.458544 3.89676 126 131 134
0.37215 -0.468871 3.90314 103 111 114
0.381775 -0.421852 3.89641 178 173 169
0.398663 -0.248105 3.87063 126 137 138
0.369604 -0.457322 3.92105 169 167 164
0.385116 -0.411185 3.9087 115 125 130
0.410317 -0.251905 3.88175 52 57 61
0.408075 -0.232547 3.88564 55 59 63
0.392916 -0.196465 3.92273 57 62 66
0.399702 -0.201693 3.93006 45 50 53
0.426565 -0.295606 3.8922 47 50 53
0.426556 -0.302287 3.91284 83 85 88
0.363053 0.66971 4.10899 162 150 130
0.325478 0.23885 4.20975 86 87 84
0.335891 0.106759 4.27412 86 81 76
0.380649 0.167871 4.21421 101 100 90
0.382253 0.158594 4.21872 212 201 184
0.384964 0.14923 4.22998 197 186 166
0.356948 0.0706902 4.31833 178 160 141
0.432429 0.708616 4.20241 200 187 167
0.378836 0.0665263 4.3153 220 213 204
0.428126 0.171926 4.27578 104 103 94
0.430626 0.127855 4.29446 171 155 129
0.428735 0.673231 4.29653 64 72 82
0.448203 0.694801 4.30116 202 190 177
0.433108 0.678108 4.35364 70 76 81
0.440469 0.140909 4.35755 125 124 111
0.519375 0.726232 4.34868 202 190 173
0.537217 0.748922 4.31402 207 192 170
-0.318344 0.578005 3.55094 207 195 176
-0.161145 0.399358 3.85935 135 123 116
0.313304 -0.541892 3.51802 194 190 186
0.310836 -0.486767 3.52954 102 111 113
0.336639 -0.436169 3.75233 134 148 155
0.381761 -0.368819 3.91317 146 146 144
0.446128 0.704326 4.29045 210 201 192
0.540995 0.805113 4.28365 111 110 99
0.60013 0.755083 4.39096 151 137 126
0.642856 0.807408 4.39998 104 102 91
0.657729 0.735905 4.54192 213 201 185
0.688782 0.779438 4.4977 181 164 141
0.807597 0.82347 4.65016 106 102 92
0.848949 0.825474 4.69225 198 185 164
-0.395675 0.712391 3.44416 184 167 142
0.0704952 -0.31079 3.66957 167 169 168
0.789174 0.816704 4.64617 96 95 87
-0.416641 0.729336 3.42658 135 117 100
-0.390406 0.733038 3.44191 168 154 130
-0.359496 0.762659 3.47289 86 82 75
-0.35676 0.740934 3.47323 70 69 66
-0.331129 0.700373 3.4964 106 103 90
-0.317081 0.714091 3.5034 148 137 118
-0.137439 0.535816 3.74026 181 165 146
-0.0931213 0.621917 3.7015 119 119 103
-0.112378 0.425469 3.84823 100 96 85
0.0558268 0.218317 3.97851 86 89 86
0.0904367 0.315811 3.96527 74 76 75
0.0907249 0.269072 3.97635 111 110 97
0.362859 -0.52929 3.6118 126 131 134
0.182023 0.179385 4.05741 51 51 52
0.377723 -0.512754 3.78019 105 116 121
0.201997 0.175001 4.07525 32 35 42
0.247607 0.2486 4.08286 65 66 63
0.392859 -0.215074 3.90309 131 143 145
0.391691 -0.176488 3.94605 118 129 133
0.327405 0.192377 4.15162 122 121 106
0.373957 0.172544 4.19654 186 176 156
0.372082 0.20133 4.20718 82 77 70
0.394195 0.139301 4.23195 210 199 182
0.404462 0.156929 4.23608 207 198 182
0.421023 0.142378 4.26269 193 180 163
0.450873 0.120202 4.32529 134 124 111
0.485114 0.706521 4.32507 173 159 142
0.549988 0.761693 4.32499 146 126 112
0.634268 0.759472 4.4159 162 147 139
0.684364 0.799371 4.44679 109 106 93
0.674906 0.757257 4.47873 113 107 96
0.692056 0.762981 4.49798 108 105 94
0.699096 0.798403 4.48616 98 93 81
0.7048 0.7711 4.50824 134 123 108
0.688619 0.742849 4.55226 218 208 191
0.712604 0.78467 4.5105 116 109 94
0.717465 0.809029 4.51445 144 131 111
0.725582 0.789 4.52387 178 163 141
0.735205 0.789928 4.5363 128 118 101
0.749206 0.812531 4.54836 99 96 87
0.750396 0.769274 4.64499 213 202 187
0.777776 0.793482 4.61478 178 163 144
0.810539 0.816311 4.63652 190 175 156
0.825729 0.816263 4.65468 178 165 141
-0.270008 0.690682 3.55522 101 97 88
0.287385 -0.478556 3.50026 101 99 91
0.391324 -0.375738 3.91926 178 179 180
0.676506 0.751122 4.48776 204 190 167
0.586601 0.792527 4.34197 123 121 108
-0.623663 0.725953 3.30798 186 173 149
-0.410587 0.676894 3.44148 110 105 94
-0.380354 0.739596 3.44874 105 101 90
-0.37868 0.772565 3.44862 99 96 86
-0.370239 0.771355 3.45801 151 138 118
-0.352809 0.678941 3.47645 172 158 138
-0.281532 0.693139 3.54535 69 68 66
-0.322424 0.51083 3.69344 165 151 144
-0.321468 0.499146 3.72595 133 120 112
-0.300006 0.489999 3.7355 156 140 121
-0.294418 0.478281 3.75518 208 198 186
-0.269802 0.486179 3.74192 170 155 146
0.240204 -0.429272 3.44195 141 165 183
0.244617 -0.391932 3.44541 143 166 183
0.253045 -0.460736 3.46108 175 168 165
-0.266289 0.432263 3.80693 121 105 95
-0.112924 0.533615 3.72404 188 173 158
0.246465 -0.490231 3.49 82 84 80
-0.0809258 0.627077 3.71302 117 117 102
-0.222111 0.425089 3.81489 150 133 120
0.269439 -0.451928 3.48977 66 68 72
-0.0700405 0.629097 3.72614 116 114 100
0.275042 -0.50594 3.49458 122 122 116
0.278059 -0.529258 3.49819 147 142 137
-0.227291 0.406076 3.84235 201 190 171
0.270068 -0.552181 3.51238 162 156 151
-0.174234 0.419732 3.83657 148 130 121
0.287687 -0.461544 3.53139 89 92 89
-0.163936 0.398972 3.84959 156 136 121
-0.0933921 0.477371 3.80356 199 186 165
-0.152391 0.395539 3.85169 131 117 110
-0.0816408 0.540619 3.80366 210 201 193
-0.0539371 0.562928 3.78682 70 74 78
-0.135063 0.429113 3.84339 92 87 80
-0.0632432 0.54315 3.80451 79 80 79
0.306143 -0.583911 3.55675 156 150 149
0.324947 -0.540241 3.547 48 53 58
0.294985 -0.434306 3.57639 130 138 134
-0.140024 0.355814 3.88448 108 106 93
0.35472 -0.502935 3.62795 83 93 98
0.359089 -0.581322 3.64176 154 153 153
0.372687 -0.545774 3.69763 104 106 108
0.0152044 0.189767 3.9771 157 166 166
0.0536577 0.253546 3.95088 32 38 42
0.374663 -0.553723 3.71019 75 82 85
0.351223 -0.43503 3.73699 135 149 155
0.0814984 0.26027 3.9592 54 59 65
0.0659742 0.233376 3.9757 22 28 36
0.0900848 0.279712 3.96161 55 55 54
0.0133317 0.177999 4.03565 158 166 166
0.00792912 0.185674 4.05662 53 61 71
0.381519 -0.503603 3.82932 85 91 94
0.380317 -0.466247 3.84485 110 121 129
0.106511 0.382749 4.06737 157 166 165
0.100297 0.368744 4.08226 49 58 66
0.112969 0.372049 4.08752 158 166 166
0.381952 -0.449849 3.86983 155 154 154
0.376528 -0.496441 3.87958 180 176 173
0.397915 -0.233009 3.88143 132 144 146
0.388503 -0.387412 3.90405 125 132 133
0.37311 -0.198061 3.91981 64 68 67
0.382856 -0.420304 3.91367 180 175 170
0.366951 -0.471478 3.93119 194 189 185
0.420532 -0.320956 3.89057 185 178 173
0.385749 -0.396269 3.92874 161 160 157
0.403938 -0.340157 3.91713 182 172 166
0.388032 -0.167475 3.94338 131 144 149
0.365585 -0.131647 3.96355 64 68 67
0.373698 -0.139923 3.97538 121 132 134
0.427819 -0.293385 3.934 60 63 65
0.243476 0.143387 4.09617 30 37 43
0.391522 -0.172081 3.97065 50 57 62
0.427429 -0.298444 3.94628 160 154 149
0.284611 0.235931 4.07744 44 50 54
0.277436 0.144529 4.11284 24 30 38
0.309386 0.636703 4.0924 77 79 78
0.339983 0.154767 4.17117 181 167 144
0.332247 0.238392 4.20141 87 87 83
0.343592 0.206833 4.23806 120 119 105
0.383084 0.15397 4.20306 169 151 129
0.365998 0.127266 4.22102 179 161 140
0.3873 0.167948 4.20575 86 85 78
0.389309 0.158666 4.20973 212 201 185
0.348298 0.105787 4.25856 86 82 76
0.392983 0.149136 4.21975 198 187 167
0.396698 0.164665 4.22041 195 182 161
0.434399 0.729542 4.18467 200 189 170
0.400868 0.185646 4.23165 187 173 154
0.398489 0.110294 4.26388 171 156 134
0.417056 0.175703 4.24552 191 177 155
0.407298 0.120116 4.26089 174 156 139
0.433112 0.148515 4.26206 169 159 139
0.401208 0.0879245 4.29511 158 137 124
0.440381 0.127707 4.28154 161 144 120
0.485881 0.756158 4.23922 212 203 192
0.457218 0.136728 4.3034 113 111 98
0.459132 0.127586 4.3198 186 171 149
0.631605 0.806057 4.38063 178 164 141
0.678245 0.777688 4.45684 188 174 152
0.713314 0.77583 4.49221 204 191 174
0.725615 0.798886 4.5151 98 92 80
0.757209 0.767534 4.63644 210 197 183
0.76298 0.773056 4.65724 216 208 201
0.829779 0.80258 4.64845 215 205 191
0.832635 0.814533 4.64563 175 160 136
-0.260604 0.448148 3.79834 167 149 132
0.445747 0.143352 4.29048 114 110 98
0.597773 0.768203 4.37274 168 152 132
0.705068 0.786483 4.50078 133 117 101
0.429207 0.161212 4.27055 185 173 151
0.665365 0.750089 4.47535 172 160 138
-0.629784 0.750918 3.29958 117 116 103
-0.617421 0.713626 3.3015 98 95 88
-0.61145 0.723772 3.30231 185 172 149
-0.62086 0.700145 3.3082 184 169 146
-0.591568 0.70994 3.31228 174 160 138
-0.561967 0.717366 3.32162 176 162 140
-0.474168 0.763667 3.38558 71 72 74
-0.44554 0.762411 3.39599 89 82 75
-0.427837 0.748366 3.40545 183 168 147
-0.398484 0.789322 3.41281 152 139 120
-0.391943 0.777797 3.42135 182 167 147
-0.370008 0.754255 3.43925 161 147 126
0.238617 -0.400978 3.43768 140 161 178
-0.313231 0.510564 3.68782 153 140 135
-0.32945 0.492793 3.72809 193 181 169
-0.316311 0.485675 3.73668 205 193 178
-0.286205 0.490659 3.73433 200 185 168
0.238546 -0.397645 3.49295 59 66 72
-0.179936 0.53398 3.69353 213 204 191
-0.290231 0.463569 3.76539 167 154 145
0.303774 -0.48991 3.536 105 113 114
0.26427 -0.598437 3.55508 147 139 137
0.0593319 -0.320263 3.66654 61 66 71
0.309784 -0.566596 3.55127 194 189 184
-0.192778 0.428069 3.82072 139 122 113
-0.180131 0.425081 3.82393 152 133 122
0.292436 -0.424494 3.60245 102 105 101
-0.134229 0.402761 3.84923 114 104 100
-0.0727489 0.526174 3.8235 78 78 73
-0.135727 0.381613 3.86005 198 183 160
-0.0936802 0.436428 3.8475 196 184 164
-0.00422161 0.590026 3.80949 61 65 69
-0.0996761 0.386369 3.86132 187 170 147
0.350228 -0.591532 3.62827 153 150 146
0.361723 -0.558851 3.62471 178 175 176
-0.114167 0.335514 3.88568 208 196 176
0.360469 -0.526128 3.64146 75 87 92
0.371611 -0.539931 3.68066 85 87 91
0.375354 -0.549247 3.72139 67 75 79
0.352105 -0.624074 3.75568 177 170 164
0.377633 -0.576374 3.74641 201 198 195
0.383737 -0.561834 3.74713 95 103 107
0.353611 -0.618299 3.76495 120 116 113
0.0490553 0.275032 3.94428 46 48 50
0.3795 -0.539633 3.76442 55 61 66
0.359152 -0.609029 3.77626 197 193 192
0.0663537 0.291298 3.94435 120 120 106
0.35173 -0.619366 3.78203 160 151 146
0.0755692 0.258357 3.94321 78 80 82
0.0625374 0.244795 3.95173 80 79 80
0.0170063 0.170816 3.98656 157 166 166
0.366681 -0.5984 3.79478 191 186 183
0.0234703 0.186262 4.0249 32 42 56
0.102952 0.362227 3.99542 55 61 65
0.379361 -0.258042 3.8384 168 167 164
0.378458 -0.543097 3.84977 104 108 111
0.37847 -0.534749 3.85709 173 168 163
0.391096 -0.252353 3.8593 74 77 76
0.37525 -0.534037 3.87005 98 107 112
0.393943 -0.313425 3.85974 77 81 84
0.405512 -0.31947 3.86482 199 193 187
0.384772 -0.474318 3.88238 83 92 96
0.423141 -0.275849 3.86145 100 108 113
0.412921 -0.252479 3.86802 56 59 62
0.388531 -0.408039 3.89165 176 173 170
0.389921 -0.397535 3.91648 104 113 115
0.401255 -0.374673 3.91096 186 186 186
0.121301 0.351593 4.0953 158 166 166
0.394269 -0.355353 3.92807 91 92 96
0.35779 -0.120622 3.97104 64 68 67
0.413388 -0.317948 3.94388 172 164 160
0.366224 -0.13054 4.01548 66 69 71
0.36642 -0.116475 4.01584 128 142 149
0.341571 -0.0938347 4.03793 121 131 132
0.359695 -0.112553 4.03097 73 76 76
0.354715 -0.122385 4.04043 126 134 127
0.347561 -0.113716 4.05359 118 129 131
0.342138 -0.102502 4.06059 58 62 66
0.332715 -0.100959 4.08615 121 136 143
0.29542 0.154586 4.11489 34 40 52
0.323398 -0.101018 4.1058 121 134 138
0.34938 0.710821 4.09818 184 172 147
0.357784 0.66045 4.1319 204 192 180
0.394632 0.699861 4.13701 177 161 141
0.361654 0.186409 4.17344 116 114 99
0.402147 0.703699 4.1476 183 169 147
0.407261 0.722154 4.15221 116 116 103
0.365061 0.165773 4.19049 203 191 171
0.369883 0.0960846 4.27835 194 182 168
0.429559 0.143133 4.25435 193 180 162
0.473587 0.796332 4.23193 144 140 128
0.436398 0.173214 4.26457 105 103 94
0.528596 0.75683 4.31435 170 154 132
0.570107 0.738323 4.38422 183 173 162
0.687694 0.750674 4.54186 129 114 100
0.377982 -0.5556 3.69876 82 91 96
0.355504 0.721531 4.1051 83 78 72
0.382699 0.690096 4.12702 116 111 100
0.4277 0.726666 4.17703 192 180 162
0.391412 0.177396 4.20794 108 106 97
0.425353 0.678084 4.36451 63 72 81
0.444391 0.153655 4.28921 167 156 136
0.53261 0.749621 4.32305 207 192 170
0.320507 -0.461438 3.58218 48 51 57
-0.605787 0.714344 3.30513 186 171 148
-0.598289 0.703163 3.30919 114 113 102
-0.445032 0.697706 3.40668 73 74 72
-0.402257 0.776386 3.41703 192 173 149
-0.400276 0.726684 3.41916 135 118 102
-0.339812 0.737474 3.47445 84 82 77
-0.329635 0.573352 3.54807 198 184 165
0.25832 -0.415448 3.44095 58 66 75
0.253087 -0.396439 3.45559 81 82 82
-0.297228 0.547086 3.62184 114 102 92
-0.289143 0.535319 3.62105 208 193 173
0.25057 -0.396832 3.4875 61 68 73
0.300335 -0.477658 3.47985 145 139 130
-0.330291 0.498668 3.71852 141 131 127
0.303591 -0.564778 3.53601 184 177 170
0.297931 -0.592566 3.55124 138 131 130
0.322994 -0.563808 3.54493 187 180 174
0.318889 -0.582587 3.55799 134 128 127
0.327076 -0.572174 3.55645 147 141 139
0.337001 -0.531783 3.56272 50 57 61
0.341716 -0.549962 3.56372 159 156 152
-0.100283 0.530346 3.71864 195 181 165
0.336793 -0.56951 3.57329 201 197 194
0.352579 -0.558456 3.58612 199 196 194
-0.0570342 0.558942 3.77634 200 189 174
0.351929 -0.489769 3.65624 78 85 90
-0.00985948 0.601303 3.79203 64 66 69
-0.109672 0.366666 3.86976 200 187 164
-0.0832888 0.3673 3.87268 110 110 100
-0.0786432 0.339438 3.8929 90 88 83
0.3594 -0.433442 3.73101 134 149 155
0.383804 -0.572568 3.7543 103 108 110
0.383219 -0.575936 3.76582 127 126 123
0.386548 -0.586835 3.78774 207 203 201
0.382062 -0.586745 3.8014 194 190 187
0.0858177 0.269088 3.94521 86 89 89
0.381297 -0.569588 3.82506 104 110 113
0.00609845 0.170049 3.9927 158 166 166
0.38362 -0.528743 3.84383 105 108 109
0.00925757 0.170182 4.00332 36 42 55
0.100005 0.267282 3.9707 110 109 97
0.387427 -0.418209 3.88239 111 115 115
0.413934 -0.32417 3.8741 220 217 215
0.36798 -0.515035 3.90025 130 129 127
0.368106 -0.494166 3.90514 165 159 155
0.337473 -0.49754 3.95175 184 177 172
0.364015 -0.471878 3.94295 115 112 110
0.36153 -0.465851 3.95156 188 182 177
0.3814 -0.416218 3.94604 102 109 113
0.420019 -0.304076 3.95541 163 156 152
0.362871 -0.115503 3.98374 131 142 144
0.376667 -0.358569 3.98045 168 160 155
0.417617 -0.31039 3.96757 157 150 145
0.357784 -0.105226 3.99486 127 136 133
0.407402 -0.314909 3.98083 78 83 86
0.224079 0.161406 4.08839 90 92 86
0.32598 -0.0855192 4.05156 125 132 127
0.319973 -0.0697031 4.06077 65 70 71
0.26598 0.228453 4.09603 57 64 69
0.326903 -0.0808849 4.06914 110 118 117
0.325996 -0.102795 4.09381 91 100 103
0.308787 0.642188 4.11655 67 71 75
0.338054 0.711829 4.1056 184 171 146
0.31693 -0.106455 4.11253 61 66 70
0.344142 0.723278 4.11255 81 78 73
0.354319 0.716897 4.11798 175 163 140
0.391682 0.704594 4.15474 182 167 146
0.395314 0.722859 4.16039 117 115 103
0.35325 0.186671 4.17917 116 115 100
0.334894 0.209166 4.22239 96 92 82
0.416666 0.728283 4.18468 193 181 164
0.373739 0.155102 4.2096 170 153 135
0.420498 0.731534 4.1951 201 190 173
0.420359 0.730049 4.20936 186 171 151
0.412289 0.697702 4.21422 143 129 114
0.407637 0.67916 4.23445 209 195 177
0.428232 0.715147 4.22961 128 118 105
0.359219 0.0964745 4.28599 174 159 142
0.458694 0.759959 4.24299 143 132 116
0.456073 0.746049 4.25157 162 145 127
0.424604 0.150787 4.26782 173 163 141
0.42791 0.697258 4.27018 164 152 145
0.471434 0.781301 4.25331 127 116 101
0.477452 0.790623 4.25293 199 189 173
0.475053 0.763082 4.26482 205 194 182
0.449615 0.713301 4.29402 219 210 201
0.448785 0.139041 4.30904 113 111 99
0.501642 0.752788 4.30569 125 114 101
0.43208 0.691099 4.35213 210 196 181
0.469699 0.708416 4.33699 171 156 138
0.506106 0.735808 4.32631 159 143 131
0.515131 0.75816 4.32466 169 152 130
0.521891 0.76791 4.32203 210 199 190
0.427167 0.685996 4.37974 207 196 185
0.531866 0.765031 4.33972 145 126 111
0.536672 0.762735 4.35503 201 187 172
0.573334 0.755383 4.39226 164 152 142
0.574282 0.73823 4.41695 99 96 85
0.615512 0.762548 4.43194 164 152 147
-0.110554 0.169613 4.95771 83 90 92
-0.114486 0.195434 4.96212 64 71 74
-0.157556 0.2271 4.99729 120 131 134
-0.112151 0.198195 4.97288 125 138 143
0.655353 0.760132 4.49597 111 106 94
-0.134334 0.227017 5.00431 71 79 84
0.33224 -0.566902 3.5647 184 177 172
0.376203 -0.447841 3.80964 83 90 92
0.391049 -0.405434 3.90294 193 188 184
0.342534 0.66307 4.14581 203 191 176
0.422933 0.711109 4.211 203 192 175
0.438629 0.71169 4.23408 142 130 112
0.485978 0.785371 4.25368 144 135 117
0.511875 0.727909 4.35558 205 194 180
0.606794 0.736992 4.43744 143 131 116
-0.151922 0.426106 3.83832 187 172 150
0.353151 0.661513 4.14081 203 191 176
0.470284 0.75789 4.23696 143 132 116
0.363866 0.698984 4.11652 130 122 109
-0.393194 0.738177 3.42024 147 132 114
0.262377 -0.463539 3.45747 160 162 167
-0.342101 0.573968 3.5512 207 194 173
0.311185 -0.523152 3.50776 52 54 59
0.260225 -0.41848 3.54221 101 99 91
-0.244693 0.560433 3.63436 214 201 182
-0.258379 0.531087 3.64356 213 199 181
0.27807 -0.604792 3.55631 187 181 178
0.336308 -0.539377 3.55214 54 58 64
-0.214318 0.556786 3.65058 212 198 177
0.32234 -0.478362 3.56124 52 57 63
0.324934 -0.487317 3.56494 127 135 133
0.351744 -0.550931 3.56881 171 165 161
0.304792 -0.430413 3.58051 81 79 72
0.374953 -0.541471 3.60963 60 65 71
0.366149 -0.561107 3.61467 112 108 108
0.360593 -0.580795 3.62652 144 142 142
0.375515 -0.588582 3.6701 215 213 210
-0.236648 0.438082 3.80912 191 176 154
0.383015 -0.561768 3.71105 90 97 100
0.378531 -0.578708 3.71421 96 104 107
-0.201889 0.402052 3.8419 207 193 174
0.385276 -0.564502 3.72477 170 167 163
0.363551 -0.618613 3.72848 139 133 130
0.346993 -0.640306 3.73664 200 195 192
0.377928 -0.539481 3.73191 101 105 109
-0.085109 0.459941 3.85542 106 101 90
0.367843 -0.58529 3.76333 209 206 205
0.356646 -0.602189 3.7989 175 173 170
0.384723 -0.493583 3.83174 147 145 144
0.38376 -0.532328 3.83336 92 99 102
0.387209 -0.51102 3.84325 129 130 130
0.0311303 0.250277 3.9429 154 163 163
0.402119 -0.252972 3.85451 87 91 88
0.421691 -0.29302 3.86011 146 146 145
0.0482781 0.223364 3.96487 35 41 53
0.373388 -0.507688 3.88834 182 176 171
0.0117977 0.18059 3.99159 43 50 63
0.426867 -0.31219 3.89448 169 163 159
-0.00351264 0.1588 4.0085 158 167 166
0.354154 -0.504211 3.91669 112 114 114
0.365684 -0.491167 3.915 166 162 159
0.36915 -0.480263 3.91583 166 160 157
0.393167 -0.386451 3.91389 197 192 185
0.411786 -0.331666 3.92568 86 86 86
0.38415 -0.407181 3.9327 112 122 125
0.399704 -0.38444 3.93224 215 213 211
