# .PCD v0.7 - Point Cloud Data file format
VERSION 0.7
FIELDS x y z normal_x normal_y normal_z curvature
SIZE 4 4 4 4 4 4 4
TYPE F F F F F F F
COUNT 1 1 1 1 1 1 1
WIDTH 327
HEIGHT 1
VIEWPOINT 0 0 0 1 0 0 0
POINTS 327
DATA ascii
-0.58241934 -0.04450269 4.2287421 -0.16879474 -0.61112159 -0.77332968 0.049218304
-0.57481784 -0.064670466 4.2098083 -0.22299469 -0.60738444 -0.76246804 0.042449042
-0.44876316 -0.7330327 4.3078036 -0.15077431 0.51225454 -0.8454954 0.0025367185
-0.50679779 -0.048431586 4.2472281 -0.13871597 -0.71764922 -0.6824497 0.043585487
-0.41549876 -0.74716431 4.2927403 -0.14747877 0.50592148 -0.84987849 0.0026017113
-0.41549876 -0.74716431 4.2927403 -0.14747877 0.50592148 -0.84987849 0.0026017113
-0.39253002 -0.75569314 4.2922235 -0.14748076 0.50592399 -0.84987664 0.0026020464
-0.39238533 -0.73561227 4.2937751 -0.14748181 0.50592536 -0.84987569 0.0026021581
-0.39238402 -0.67998016 4.3290262 -0.15077391 0.51225418 -0.84549564 0.002536651
-0.36307657 -0.720128 4.3004689 -0.1474798 0.50592297 -0.84987748 0.0026019718
-0.36307657 -0.720128 4.3004689 -0.1474798 0.50592297 -0.84987748 0.0026019718
-0.35622501 -0.71168607 4.3047113 -0.14748022 0.50592333 -0.84987712 0.0026020461
-0.31132138 -0.69487536 4.3079481 -0.15192614 0.50690693 -0.84850681 0.0027233015
-0.3069689 -0.64573383 4.3374543 -0.15483482 0.49844843 -0.85298032 0.0043269848
-0.2987386 -0.65856326 4.3278956 -0.16358027 0.51360041 -0.84229225 0.0038913786
-0.31305242 -0.53065187 4.4025159 -0.14881609 0.57949626 -0.80127263 0.018585339
-0.30003226 -0.63582557 4.3411703 -0.18685509 0.50396186 -0.84327197 0.0061146016
-0.28439826 -0.67365378 4.3157406 -0.16051802 0.49245739 -0.85540617 0.0054233922
-0.27207199 -0.57841372 4.3725805 -0.13741198 0.49344915 -0.85885143 0.0019014803
-0.25169009 -0.56875956 4.377749 -0.15277328 0.48710772 -0.8598758 0.0027192121
-0.24223366 -0.60385722 4.3483748 -0.15431103 0.51409143 -0.84374052 0.0040774695
-0.24011768 -0.6213305 4.336483 -0.15425332 0.50643015 -0.84837162 0.0042615226
-0.24178582 -0.60400605 4.3470302 -0.15431103 0.51409149 -0.84374046 0.0040774015
-0.24178582 -0.60400605 4.3470302 -0.15431103 0.51409149 -0.84374046 0.0040774015
-0.23099324 -0.6570822 4.3147473 -0.14980656 0.49746442 -0.85445136 0.0047828532
-0.22781797 -0.62082082 4.3376517 -0.052439298 0.56270605 -0.82499212 0.029114885
-0.22585605 -0.60846531 4.3439922 -0.15848619 0.4796569 -0.86302453 0.0059003006
-0.21610272 -0.62374681 4.3360987 -0.052439243 0.56270623 -0.824992 0.029114923
-0.21610272 -0.62374681 4.3360987 -0.052439243 0.56270623 -0.824992 0.029114923
-0.21582299 -0.62399137 4.3352671 -0.052439258 0.56270617 -0.82499206 0.029114865
-0.21582299 -0.62399137 4.3352671 -0.052439258 0.56270617 -0.82499206 0.029114865
-0.20913048 -0.63163173 4.3295712 -0.083720855 0.53739202 -0.83916658 0.031304087
-0.20913048 -0.63163173 4.3295712 -0.083720855 0.53739202 -0.83916658 0.031304087
-0.19288717 -0.6237703 4.3366604 -0.13017458 0.46573493 -0.87529743 0.033053469
-0.1873039 -0.63727087 4.3182826 -0.12343074 0.52056557 -0.84485281 0.031624638
-0.1873039 -0.63727087 4.3182826 -0.12343074 0.52056557 -0.84485281 0.031624638
-0.1828987 -0.61118668 4.3305907 -0.15715858 0.46367279 -0.87195683 0.0290619
-0.17378637 -0.63555676 4.3179941 -0.16859996 0.46831316 -0.86732745 0.02623003
-0.17401758 -0.62015903 4.3247862 -0.16859989 0.46831289 -0.86732757 0.026230007
-0.17508946 -0.58402944 4.3470349 -0.16796848 0.46349478 -0.87003398 0.026156321
-0.1698716 -0.59748262 4.3394747 -0.17693648 0.47404227 -0.86254132 0.023657752
-0.1674338 -0.61232072 4.3300147 -0.17693669 0.47404286 -0.8625409 0.023657868
-0.14909771 -0.61010563 4.330864 -0.16232347 0.46989551 -0.86766893 0.019468386
-0.18222761 -0.24356732 4.3139925 -0.23996031 -0.1668538 -0.95633608 0.12680355
-0.14452666 -0.49847203 4.4088202 -0.28089333 0.58546102 -0.76048297 0.053650364
-0.12712473 -0.60217094 4.3281107 -0.16936055 0.52305216 -0.83530432 0.011964052
-0.12712473 -0.60217094 4.3281107 -0.16936055 0.52305216 -0.83530432 0.011964052
-0.13469382 -0.46403983 4.4247828 -0.28126809 0.57695347 -0.76682007 0.05915463
-0.13469382 -0.46403983 4.4247828 -0.28126809 0.57695347 -0.76682007 0.05915463
-0.11734025 -0.60603929 4.324883 -0.130577 0.51661867 -0.84620023 0.012385566
-0.12208024 -0.54137439 4.3705878 -0.11974642 0.56209028 -0.81836134 0.0074652624
-0.10727847 -0.60402071 4.3287787 -0.12424298 0.51330477 -0.84916544 0.0097710704
-0.10643598 -0.60329449 4.325861 -0.12424295 0.51330471 -0.84916544 0.0097710909
-0.10403024 -0.491842 4.396708 -0.24835189 0.54664809 -0.79968566 0.078399643
-0.15757661 0.038624704 3.9590659 0.56552249 0.52690673 -0.63447112 0.0010353609
-0.15757661 0.038624704 3.9590659 0.56552249 0.52690673 -0.63447112 0.0010353609
-0.10848235 -0.38290361 4.4940667 -0.31397629 0.54566497 -0.77696121 0.038760174
-0.095510088 -0.5212127 4.3751993 -0.26391676 0.38853621 -0.88282925 0.075705327
-0.11583984 -0.25227812 4.3094163 -0.34133962 -0.18216716 -0.92211837 0.12674819
-0.084065348 -0.49132138 4.3983226 -0.20968741 0.43794411 -0.87420595 0.076918758
-0.070752308 -0.57290679 4.3358207 -0.16207364 0.56688148 -0.80769885 0.012154363
-0.066947095 -0.53691405 4.3637609 -0.16282718 0.53607041 -0.8283211 0.016092779
-0.066947095 -0.53691405 4.3637609 -0.16282718 0.53607041 -0.8283211 0.016092779
-0.054470383 -0.56346232 4.3427973 -0.17407656 0.57368499 -0.80036426 0.012588064
-0.063234426 -0.45936716 4.3249712 -0.14520487 0.42667511 -0.8926723 0.10467622
-0.039946325 -0.55724257 4.3452072 -0.21013138 0.56798106 -0.79576522 0.013441906
-0.033569459 -0.57169926 4.3475819 -0.21013138 0.56798112 -0.79576522 0.013441906
-0.036808785 -0.52468294 4.363451 -0.20910013 0.54855245 -0.8095476 0.01705713
-0.0553579 -0.231681 4.3388367 0.3365086 -0.10280375 -0.93605196 0.11807211
-0.0553579 -0.231681 4.3388367 0.3365086 -0.10280375 -0.93605196 0.11807211
-0.022213722 -0.54365063 4.3528295 -0.24860571 0.56779462 -0.78473216 0.015791951
-0.016353043 -0.50717932 4.3712015 -0.26193547 0.54963481 -0.79327881 0.014863286
-0.013066761 -0.54740447 4.3390865 -0.24919362 0.57121855 -0.78205621 0.015423918
-0.013228435 -0.4994348 4.3794618 -0.25166672 0.52272868 -0.8145051 0.013714965
-0.013228435 -0.4994348 4.3794618 -0.25166672 0.52272868 -0.8145051 0.013714965
-0.0050932188 -0.48618639 4.3851633 -0.19767387 0.33929899 -0.91967458 0.096887983
0.00083198125 -0.49156535 4.3816643 -0.25649023 0.54148257 -0.80063057 0.011149648
-0.014996842 -0.29582825 4.4953799 0.094139464 -0.12193324 -0.98806375 0.13235657
0.0056619314 -0.54441947 4.3359694 -0.26193547 0.54963475 -0.79327893 0.014863286
0.023855157 -0.54532486 4.3346629 -0.28772011 0.54593581 -0.78687435 0.012850657
0.036075138 -0.52789247 4.3427739 -0.27966544 0.56713873 -0.77468765 0.010644189
0.039987508 -0.53968525 4.3357091 -0.27966529 0.56713855 -0.77468771 0.01064419
0.040532924 -0.51491416 4.3519144 -0.22059017 0.56630492 -0.79412764 0.0042860718
0.040950637 -0.50470132 4.3583817 -0.22059014 0.56630486 -0.7941277 0.0042860722
0.018672328 -0.2417628 4.3462667 0.32775027 0.22445308 -0.91771483 0.11689723
0.01734796 -0.07910797 4.0202494 0.57913131 0.54635936 -0.60506064 0.0057553132
0.073743381 -0.49639356 4.3459587 -0.21475883 0.60157865 -0.76940346 0.0015946053
0.025800405 -0.093997084 4.0201778 0.57913125 0.54635942 -0.60506064 0.0057553365
0.025800405 -0.093997084 4.0201778 0.57913125 0.54635942 -0.60506064 0.0057553365
0.035804607 -0.093514122 4.0274196 0.57913125 0.54635924 -0.60506082 0.005755268
0.035845097 -0.081843294 4.0323954 0.57913119 0.54635936 -0.60506076 0.0057553379
0.046961103 -0.077884249 4.0445805 0.57913131 0.54635936 -0.60506064 0.0057553598
0.10789269 -0.46439078 4.3723946 -0.22137649 0.60772771 -0.76266611 0.001128295
0.055386838 -0.12418413 4.0148849 0.60135466 0.52013606 -0.60649073 0.0065478431
0.10921362 -0.44809037 4.3825617 -0.22489454 0.6097492 -0.76001865 0.0012074052
0.10823303 -0.42503545 4.4016685 -0.22107118 0.6057055 -0.76436144 0.0011885484
0.054744378 -0.008342037 4.1116815 0.63793975 0.48521873 -0.59799296 0.0014121622
0.12510382 -0.4775264 4.363956 -0.2267026 0.60778713 -0.76105231 0.0011416527
0.11975823 -0.33314264 4.4706254 0.14401905 0.55190217 -0.82137841 0.1007914
0.12900428 -0.42016712 4.4017992 -0.21627514 0.6118719 -0.76081401 0.0013836524
0.069369443 0.079508997 4.2010283 0.65898257 0.52107745 -0.5424208 0.0028564031
0.12420712 -0.28858376 4.512166 0.14401862 0.55190176 -0.82137871 0.10079132
0.073064804 0.020781811 4.1518378 0.65321207 0.51754564 -0.55268472 0.0019049594
0.074536197 0.0021559976 4.1335449 0.65372932 0.49168772 -0.57522273 0.00086992595
0.08252354 -0.10302883 4.0598845 0.60266924 0.52913135 -0.59733564 0.0059594084
0.080085024 -0.021177093 4.1221499 0.64938295 0.48698887 -0.58407503 0.001103249
0.087992013 -0.055320553 4.1079679 0.6487698 0.48222864 -0.58868784 0.0012352628
0.087992013 -0.055320553 4.1079679 0.6487698 0.48222864 -0.58868784 0.0012352628
0.080103099 0.11197793 4.2425718 0.64550191 0.51549256 -0.56355542 0.0031309489
0.09252248 -0.11214244 4.0624123 0.6408093 0.50926512 -0.57446712 0.0041701971
0.09252248 -0.11214244 4.0624123 0.6408093 0.50926512 -0.57446712 0.0041701971
0.094269253 -0.12663856 4.0589004 0.62400854 0.53260243 -0.57179362 0.0055249454
0.14542134 -0.43308669 4.3916101 -0.21627532 0.61187208 -0.76081371 0.0013836815
0.084936857 0.071105495 4.2075071 0.65898246 0.52107757 -0.5424208 0.0028563493
0.10304976 -0.029881643 4.1426373 0.64422494 0.50178534 -0.57722241 0.0018361006
0.16070034 -0.3959578 4.4101057 -0.21734335 0.61913604 -0.75460744 0.0012542506
0.16636501 -0.46759593 4.3506713 -0.2239044 0.60361868 -0.76518703 0.0012952918
0.11426527 -0.13339747 4.0600524 0.63961703 0.50947702 -0.57560688 0.0034226493
0.1064217 0.12543032 4.2825155 0.6498037 0.55123931 -0.52334535 0.0045007258
0.17672797 -0.43309647 4.3726702 -0.21627526 0.61187202 -0.76081377 0.0013837108
0.18409768 -0.40559468 4.3971243 -0.21734332 0.61913598 -0.75460756 0.0012542506
0.13798177 -0.071496025 4.148437 0.64871687 0.48043513 -0.5902105 0.0024648958
0.12938653 0.14978427 4.3325663 0.65485519 0.54702014 -0.52147251 0.005131667
0.14223109 -0.1366214 4.1026888 0.64288545 0.49301174 -0.58620614 0.0034914038
0.19826688 -0.44061044 4.3641753 -0.21627522 0.6118719 -0.76081383 0.0013837398
0.19603638 -0.37710667 4.4104533 -0.21734339 0.61913604 -0.7546075 0.0012542262
0.15009496 -0.12258162 4.1165934 0.67296618 0.47834283 -0.56418496 0.0041054208
0.15020178 -0.020591322 4.2072601 0.65966409 0.53981233 -0.52292055 0.0027439948
0.15204398 -0.061950453 4.1640296 0.65505207 0.50380331 -0.56310654 0.0022499401
0.15109947 -0.0097399224 4.2202749 0.66643751 0.5348832 -0.51938516 0.0026969134
0.20384194 -0.40909788 4.3898835 -0.21734335 0.6191361 -0.75460744 0.0012542505
0.1543442 -0.076522253 4.1623607 0.64499801 0.49634233 -0.58105236 0.0026253706
0.20771047 -0.43144959 4.3661141 -0.21627527 0.61187202 -0.76081383 0.0013837108
0.16028106 -0.098493911 4.1481824 0.63980418 0.48201385 -0.5985927 0.0027587945
0.22027846 -0.41290855 4.3797903 -0.21734329 0.61913604 -0.75460744 0.0012542749
0.17097898 -0.083021842 4.1605415 0.6623559 0.49375135 -0.56346631 0.0025424205
0.17519864 -0.070974328 4.1889291 0.68656772 0.47387758 -0.55142069 0.0027286147
0.17444876 0.0083946241 4.2527781 0.65148062 0.51030397 -0.56139362 0.0043245135
0.1810077 -0.13509132 4.1377959 0.66328418 0.47844261 -0.57545358 0.0043751844
0.17890517 -0.027635595 4.2383003 0.6506381 0.53246343 -0.54143578 0.0044099977
0.2269098 -0.34240291 4.4403791 0.34969395 0.69578707 -0.62737113 0.11162484
0.18452211 -0.12285909 4.1537008 0.6679855 0.47554278 -0.57241112 0.004538775
0.18156447 0.087320209 4.3318658 0.66205037 0.5368911 -0.52291226 0.005473881
0.18191428 0.087259792 4.3303638 0.66205049 0.53689098 -0.5229122 0.0054738531
0.20457427 -0.04098944 4.2476287 0.64648962 0.53555071 -0.54335672 0.0042447024
0.22083409 -0.17255555 4.1517558 0.66609323 0.47091627 -0.57840961 0.0044763437
0.22359592 0.0025867438 4.3134608 0.67021954 0.51800948 -0.53148079 0.011776158
0.26590273 -0.74906552 3.8356843 0.14322878 0.6044594 -0.78365451 0.053658016
0.23836944 -0.15660995 4.1847076 0.66151017 0.47144347 -0.58321989 0.0026436117
0.24581574 0.016823646 4.3490314 0.67326516 0.53502101 -0.51035923 0.010064645
0.27405107 -0.76199293 3.8056765 0.14322892 0.60445958 -0.78365433 0.053658079
0.25761721 -0.061855335 4.2893929 0.6445145 0.56968671 -0.50995898 0.010502037
0.25761721 -0.061855335 4.2893929 0.6445145 0.56968671 -0.50995898 0.010502037
0.26105523 -0.073541738 4.2835498 0.67060214 0.51043677 -0.53828156 0.01081636
0.29255894 -0.75862527 3.7944369 0.14794703 0.62411344 -0.76719886 0.082255155
0.28474656 -0.063417234 4.3226104 0.65810388 0.57267886 -0.4888131 0.014247949
0.29829228 -0.14205545 4.2651052 0.59091061 0.59762472 -0.54191267 0.010901368
0.31513622 -0.10085398 4.2994699 0.60614985 0.62911791 -0.48661378 0.017274003
0.33947745 -0.41684845 4.1640306 0.067689128 0.7428534 -0.66602331 0.078714229
0.35764635 -0.87668753 3.8102388 -0.13225786 -0.74623042 -0.65241712 0.03988599
0.34857261 -0.59594178 3.9822838 0.51465249 0.47697446 -0.71248031 0.028601883
0.34125453 -0.055552598 4.3994441 0.60961044 0.66767728 -0.42729628 0.021885959
0.33844179 0.079263195 4.4796252 0.57218689 0.39523652 -0.71860296 0.020953111
0.36465281 -0.36992043 4.2156949 -0.13096151 0.83654642 -0.53201437 0.11474015
0.36267206 -0.084281795 4.3965569 0.56500369 0.65647906 -0.4998059 0.032741848
0.36462477 -0.096763171 4.3670125 0.58068866 0.68961352 -0.43270531 0.019240312
0.37440461 -0.5428943 4.0171041 0.1331322 0.68546635 -0.71582937 0.050473705
0.37440461 -0.5428943 4.0171041 0.1331322 0.68546635 -0.71582937 0.050473705
0.37941706 -0.24295999 4.2410402 0.52898371 0.4972471 -0.68769294 0.037583958
0.39507601 -0.051921166 4.436904 0.36558086 0.64731795 -0.66882741 0.040965743
0.4057529 -0.35001296 4.2343512 0.11960521 0.49006608 -0.86344075 0.029297518
0.4166345 -0.38634866 4.205821 -0.035771247 0.71654469 -0.69662338 0.003929521
0.41156963 -0.13639349 4.3672314 0.48963347 0.65800011 -0.572097 0.036039475
0.41156963 -0.13639349 4.3672314 0.48963347 0.65800011 -0.572097 0.036039475
0.41650146 -0.37757015 4.208405 -0.035771221 0.71654457 -0.69662344 0.0039296225
0.42318991 0.021051871 4.5221848 0.41924888 0.42651805 -0.80144417 0.022774957
0.42642525 -0.84602427 3.825145 -0.069277488 -0.76925743 -0.63517207 0.041920152
0.42642525 -0.84602427 3.825145 -0.069277488 -0.76925743 -0.63517207 0.041920152
0.42721191 -0.40355501 4.17523 -0.060244076 0.87503535 -0.48029545 0.12052862
0.42894477 -0.49292785 4.085938 0.049992785 0.70304966 -0.70938134 0.05371777
0.44024923 -0.38114518 4.2037392 -0.015830049 0.73391718 -0.6790545 0.0039414577
0.44024923 -0.38114518 4.2037392 -0.015830049 0.73391718 -0.6790545 0.0039414577
0.43911356 -0.49509102 4.0844674 0.066497952 0.69824362 -0.71276492 0.052558314
0.44443274 -0.021160459 4.4915533 0.43496051 0.45748034 -0.7755779 0.029897803
0.46339539 -0.41885331 4.1617203 0.12778646 0.5757674 -0.80756581 0.12862863
0.46339539 -0.41885331 4.1617203 0.12778646 0.5757674 -0.80756581 0.12862863
0.4699083 -0.33915347 4.2475634 -0.015830034 0.73391718 -0.6790545 0.0039413846
0.4699083 -0.33915347 4.2475634 -0.015830034 0.73391718 -0.6790545 0.0039413846
0.47934857 -0.37340763 4.2161622 -0.015830014 0.73391712 -0.67905456 0.0039414577
0.47934857 -0.37340763 4.2161622 -0.015830014 0.73391712 -0.67905456 0.0039414577
0.48349515 -0.04159753 4.4901071 0.24667639 0.67753118 -0.69289416 0.024343876
0.48349515 -0.04159753 4.4901071 0.24667639 0.67753118 -0.69289416 0.024343876
0.4782005 -0.39856115 4.1809912 0.096342258 0.81859785 -0.56622952 0.14051436
0.48511425 -0.35219079 4.2383952 -0.015830014 0.73391712 -0.67905456 0.003941494
0.49244469 -0.88121814 3.8318176 0.044118576 -0.86281145 -0.50359696 0.041945674
0.50052345 -0.35511056 4.2359347 -0.01583001 0.73391712 -0.6790545 0.003941494
0.50271064 -0.38916591 4.199996 0.096342482 0.81859761 -0.56622964 0.14051439
0.50271064 -0.38916591 4.199996 0.096342482 0.81859761 -0.56622964 0.14051439
0.51349092 -0.3758437 4.2107396 0.096342318 0.81859773 -0.56622952 0.14051433
0.53017592 -0.053835552 4.4996381 0.20210685 0.70151973 -0.68339074 0.018646374
0.54265869 -0.029103674 4.5239601 0.20210654 0.70152009 -0.6833905 0.018646317
0.55299288 0.032825269 4.5909977 0.39906907 0.43520197 -0.80705833 0.021652853
0.57931942 -0.0051333876 4.589756 0.36307737 0.5114302 -0.77885425 0.024222741
0.54863596 -0.82213569 3.8092132 0.13177027 -0.72399324 -0.67710441 0.02807026
0.57699496 -0.88470328 3.8445327 0.051412597 -0.88912612 -0.45476532 0.04266078
0.56966901 -0.83949858 3.824358 0.13177025 -0.72399324 -0.67710435 0.028070239
0.60727704 0.0056929006 4.5884533 0.36307731 0.51143003 -0.77885437 0.024222599
0.58173126 -0.87128949 3.8459868 0.051412627 -0.88912618 -0.45476514 0.042660788
0.58981419 -0.82040888 3.8291714 0.13177034 -0.72399288 -0.67710477 0.028070331
0.64800298 -0.018438501 4.5847654 0.34354207 0.5499934 -0.76123983 0.025662044
0.69608438 -0.85724932 3.8642011 -0.00072576152 -0.87451017 -0.48500672 0.036926791
0.025386199 -0.093389682 4.0095959 0.57913113 0.5463593 -0.60506088 0.0057552694
0.48927256 -0.043990314 4.5328956 0.39906916 0.43520188 -0.80705839 0.02165282
0.53902394 -0.8126663 3.7903953 0.13177034 -0.72399294 -0.67710471 0.028070331
0.55959409 -0.86571926 3.8318548 0.13177024 -0.72399336 -0.67710429 0.028070237
0.59437823 -0.82685536 3.8545048 -0.00072573684 -0.87451035 -0.48500645 0.036926731
0.61424941 -0.82417673 3.8224561 0.13177021 -0.72399342 -0.67710423 0.028070213
-0.31170914 -0.6737839 4.3411918 -0.15706751 0.51035851 -0.8454963 0.0034647046
-0.19937605 -0.5166887 4.4397497 -0.18512557 0.63010848 -0.75411654 0.0098289335
0.039452914 -0.092497885 4.014729 0.57913119 0.5463593 -0.60506076 0.0057552913
0.049574565 -0.078361467 4.0344892 0.57913125 0.5463593 -0.60506076 0.0057553379
-0.16807117 -0.63096911 4.3466859 -0.1769367 0.47404292 -0.86254084 0.023657868
0.055211265 -0.0071882671 4.1101422 0.63793963 0.48521891 -0.59799302 0.0014121376
-0.14792165 -0.45932406 4.4739985 -0.28126764 0.57695359 -0.76682007 0.059154656
0.064761013 0.014925065 4.1424632 0.65321207 0.51754564 -0.55268472 0.0019049596
0.070109345 0.09824881 4.22961 0.63825846 0.52101898 -0.56671447 0.0029311224
0.067198858 -0.10804892 4.0356331 0.57913131 0.54635936 -0.6050607 0.0057553607
0.074789681 0.0012185889 4.1317925 0.65372956 0.49168763 -0.57522261 0.00086987147
0.085704207 0.10415713 4.2626662 0.65290499 0.52421153 -0.54673338 0.0038165378
0.088606425 -0.055156432 4.1055217 0.64876992 0.48222849 -0.58868784 0.001235288
0.091621287 0.065180339 4.2346601 0.64550203 0.51549238 -0.56355536 0.0031309491
0.11590182 -0.13446912 4.0525393 0.63663536 0.53095144 -0.55927265 0.0034465375
0.11711165 0.19435987 4.4008584 0.61237121 0.61894542 -0.4918415 0.010098819
-0.050086472 -0.5491811 4.3803358 -0.16282719 0.53607041 -0.8283211 0.016092746
0.13802437 -0.070789129 4.1478434 0.64871669 0.48043516 -0.5902108 0.0024650416
0.13977793 0.049483228 4.2809248 0.65206784 0.51724929 -0.55431098 0.004477974
0.14261769 -0.094275363 4.1361389 0.64208549 0.48325637 -0.59513813 0.002732537
0.14110829 -0.15430291 4.0848374 0.64561033 0.50624263 -0.57175666 0.0024139986
0.1426775 -0.13602497 4.1007996 0.64288551 0.49301174 -0.58620608 0.0034913542
0.15235646 0.17698327 4.4290495 0.63011944 0.60592586 -0.48559588 0.011227144
0.16565756 0.13562725 4.3957419 0.64085698 0.59044659 -0.49058655 0.012240202
0.16192974 -0.15377356 4.1030931 0.65347201 0.49261692 -0.57471985 0.0041180705
0.17432289 -0.14851539 4.118896 0.68885684 0.47958043 -0.54357958 0.0044521117
0.17830165 0.21636641 4.5767174 0.62167346 0.59028864 -0.51486057 0.013473876
0.19629218 -0.12701763 4.1781416 0.6679855 0.47554281 -0.57241112 0.0045388015
0.19624518 -0.18301201 4.1175871 0.67883378 0.48411158 -0.55210561 0.0046404577
0.21556364 -0.034874655 4.28824 0.67021948 0.51800966 -0.53148091 0.011776158
0.22535412 -0.16098726 4.1885653 0.65899384 0.47363254 -0.5842939 0.0033174395
0.24263738 -0.054065786 4.310565 0.67523241 0.55217028 -0.48904929 0.010827014
0.26586887 -0.042790662 4.3626385 0.64381182 0.54825985 -0.5337767 0.016982153
0.27213654 -0.054827899 4.3587427 0.63253736 0.56036228 -0.53468752 0.016564548
0.3328582 -0.11112162 4.3571167 0.58126748 0.67826617 -0.4495365 0.020163098
0.33717024 -0.10147115 4.3959107 0.56266493 0.72383255 -0.39934283 0.017898632
0.38516805 -0.054030474 4.4933791 0.43819824 0.54432178 -0.71532935 0.045991935
0.38841945 -0.073392287 4.4793425 0.43819848 0.54432166 -0.71532935 0.045991942
0.39171308 -0.09974917 4.4473658 0.36558089 0.64731807 -0.66882741 0.040965822
0.39485037 -0.092110656 4.4588628 0.36558098 0.64731783 -0.66882741 0.040965769
0.36687681 -0.40201759 4.2002606 -0.13096143 0.83654624 -0.53201449 0.11474012
0.37147623 -0.42797408 4.1654763 -0.021038026 0.66502702 -0.74652296 0.10128428
0.40325451 -0.13893308 4.4149499 0.46887958 0.64781511 -0.60040623 0.046177089
0.38646659 -0.43164662 4.1631322 -0.021038048 0.66502702 -0.74652296 0.1012843
0.4027741 -0.78561431 3.7241905 -0.12686236 -0.7196005 -0.68270123 0.037734829
0.55384856 -0.81488895 3.7773979 0.13177024 -0.72399336 -0.67710435 0.028070239
0.55817926 -0.86028886 3.8169556 0.13177027 -0.7239933 -0.67710429 0.028070262
0.58316749 -0.83081621 3.871696 -0.00072575459 -0.87451035 -0.48500645 0.036926731
0.59517002 -0.82248122 3.8044245 0.1317703 -0.72399324 -0.67710447 0.028070239
0.63505185 -0.85586154 3.8221991 0.13177028 -0.72399324 -0.67710441 0.028070237
0.00021280172 -0.077950686 1.0325904 0.40364251 -0.90595287 -0.1277581 0.00059545744
-0.37297851 -0.58503604 3.36268 0.44306403 -0.88904542 -0.11529321 0.022093007
-0.36839104 -0.57526463 3.3662512 0.44306406 -0.88904536 -0.11529324 0.022092897
-0.25228059 -0.44627777 3.4477997 -0.41701707 0.90513384 0.082640827 0.023960546
-0.24189046 -0.44354689 3.4526169 -0.41701704 0.9051339 0.082640782 0.023960549
-0.21535029 -0.51686418 3.4480155 -0.41701737 0.90513366 0.082641058 0.023960574
-0.22234559 -0.49243939 3.4513052 -0.4170171 0.90513384 0.082640812 0.023960549
-0.22049119 -0.48177955 3.4535859 -0.41701707 0.90513378 0.082640864 0.023960551
-0.20084588 -0.48388243 3.4617062 -0.15616009 0.91168845 -0.3800503 0.013062592
-0.18562879 -0.48738474 3.4681058 -0.15615968 0.91168833 -0.38005069 0.013062556
-0.14914368 -0.47424689 3.4860625 -0.15615991 0.91168827 -0.38005063 0.013062704
-0.1501801 -0.4588947 3.4889565 -0.15616031 0.91168851 -0.38004997 0.013062592
-0.045429926 -0.39144221 3.5470297 -0.22169906 0.95513332 -0.1963919 0.0167978
0.023422036 -0.37736893 3.5769341 -0.12481637 0.95424539 -0.27172887 0.019507257
0.029898498 -0.40412575 3.5810325 -0.12481636 0.95424533 -0.27172896 0.019507257
0.056368314 -0.38611981 3.5921748 -0.22300085 0.96387243 -0.14567271 0.0334116
0.083001047 -0.38171574 3.6056399 -0.17667668 0.95658082 -0.23181574 0.028637588
0.099513739 -0.39526075 3.6094224 -0.20151068 0.96970367 -0.13808753 0.036720559
0.11427652 -0.33696422 3.6254528 -0.20151067 0.96970367 -0.13808751 0.036720537
0.19380394 -0.35487634 3.6560059 -0.29659981 0.93834788 -0.17757179 0.038065795
0.74878186 0.017121222 3.2962387 0.30394697 -0.94295079 -0.13586789 0.031120991
0.75863051 -0.058419634 3.2541165 0.30394682 -0.94295073 -0.13586822 0.031121096
0.83866632 -0.064496309 3.3626287 0.30394673 -0.94295079 -0.1358684 0.031121062
0.85675442 -0.10671333 3.3600419 0.30394703 -0.94295061 -0.13586818 0.03112109
0.86850977 -0.1239503 3.3536065 0.30394694 -0.94295067 -0.13586824 0.031121194
0.88221407 -0.10657237 3.3963525 0.30394712 -0.94295067 -0.13586806 0.031121053
0.96446544 -0.13518453 3.4946887 0.22517742 -0.90068966 -0.37155503 0.10246721
0.086090654 -0.38717034 3.6522701 -0.16495603 0.9610976 -0.22154208 0.02980677
0.1160649 -0.33330905 3.688144 -0.18977675 0.94006944 -0.28329179 0.034964837
0.15409826 -0.34919682 3.7936273 -0.27925435 0.95422906 -0.10706951 0.033397119
0.54468024 -0.2636804 3.4783487 0.27666715 -0.93500406 -0.22186202 0.024835434
0.72076577 -0.3452428 3.7435019 -0.33396116 -0.72383976 -0.60375994 0.069636039
0.30249557 -0.20699741 3.9043849 0.53906971 0.75051469 -0.3822715 0.055962592
-0.050192893 -0.33585474 3.1169243 0.34331852 -0.91995847 -0.1892322 0.018062998
-0.044337776 -0.33517069 3.1415415 0.32320896 -0.9265489 -0.19246572 0.016725609
0.16579007 -0.37891951 3.7356703 -0.23177561 0.95071286 -0.20597379 0.037439495
-0.01490409 -0.039061558 1.0415306 0.40364298 -0.90595269 -0.12775825 0.00059553818
0.0079950681 -0.049616646 1.0432428 0.38982669 -0.91176927 -0.12927468 0.00065374386
-0.19874078 0.073936284 -0.43155596 0.40364295 -0.90595257 -0.12775809 0.00059553824
0.24830863 -0.33332294 3.3863573 0.21488382 -0.96504712 -0.15002997 0.019615481
0.24995354 -0.28010935 3.2621694 0.21488385 -0.96504712 -0.15003002 0.019615479
0.24283238 -0.23086022 3.0736787 0.3565408 -0.91279036 -0.19922902 0.016799528
0.1980826 -0.33629414 4.0037208 0.88394582 0.46241197 -0.069389835 0.065536916
0.19204862 -0.34137616 4.0240746 0.88394576 0.46241212 -0.06938988 0.065536901
0.24877894 -0.3081553 3.8184226 -0.36982554 0.90841633 -0.19495825 0.088165641
0.25414103 -0.306124 3.8014359 -0.33323717 0.93492049 -0.1219696 0.034914915
0.31273898 -0.2800625 3.619138 -0.34604648 0.93278396 -0.10082663 0.03491167
-0.056272961 -0.37187877 4.9368153 -0.094471686 0.99034119 -0.10148618 0.086665541
0.20433588 -0.42996129 3.4980583 -0.30319995 0.95273304 -0.019223796 0.037633032
0.20679288 -0.4280743 3.5572133 -0.30319998 0.95273304 -0.019223848 0.037633061
0.21362579 -0.5337643 4.5925236 0.79840219 -0.45548454 -0.39381191 0.078379266
0.23354954 -0.40951553 4.1212049 0.58268946 0.54242402 -0.60518521 0.056927267
0.013504999 -0.05827821 1.1112666 0.38982663 -0.91176933 -0.12927464 0.00065374386
0.32728213 -0.44996643 4.793303 0.28592163 0.95825225 -0.0012177064 0.071167067
0.32113624 -0.41881779 4.624805 0.87037128 0.33459857 -0.36124435 0.090241536
0.007211159 -0.39978573 3.7805269 -0.14755195 0.98212022 -0.11691198 0.017715478
-0.10777494 -0.36892149 3.7419808 -0.21070462 0.96578676 -0.1511935 0.013950763
0.4289026 -0.33561063 4.108582 -0.060244057 0.87503535 -0.48029551 0.12052862
0.46260202 -0.51681572 4.1228094 0.032183442 0.73008823 -0.68259472 0.012954518
0.36094347 -0.85418892 3.9036696 -0.12379413 -0.76464462 -0.63245046 0.044332881
