ply
format ascii 1.0
element vertex 1255
property float x
property float y
property float z
property uchar red
property uchar green
property uchar blue
end_header
-0.700823 -0.341499 1.90054 121 120 99
-0.695195 -0.47898 1.90904 86 83 70
-0.704432 -0.262597 1.88892 139 136 122
-0.699394 -0.374311 1.89841 126 126 108
-0.69681 -0.432687 1.90267 196 182 162
-0.709819 -0.155706 1.87629 195 185 166
-0.0588216 0.118793 2.10496 101 85 56
-0.697303 -0.365123 1.88816 104 99 76
-0.706784 -0.173484 1.87031 171 162 141
-0.700747 -0.281714 1.87926 176 164 142
-0.686941 0.0106373 1.85342 60 55 42
-0.706977 -0.152338 1.8624 101 93 80
-0.699693 -0.26566 1.87269 122 126 116
-0.619923 0.130593 1.86827 38 32 20
-0.689413 -0.484359 1.89026 187 177 159
-0.667058 0.0374546 1.85706 57 47 28
-0.580787 0.117616 1.88302 116 101 75
-0.703814 -0.182771 1.85787 175 168 149
-0.70428 -0.0283125 1.84372 63 56 42
-0.548719 0.0691436 1.89477 60 53 38
-0.568728 0.112965 1.88099 51 47 39
-0.688801 -0.440292 1.87562 148 138 118
-0.704902 -0.167759 1.84964 185 177 160
-0.649082 0.142005 1.84322 67 65 52
-0.556586 0.10784 1.88268 143 130 107
-0.550382 0.104191 1.88384 140 120 88
-0.603187 0.119572 1.86101 56 51 37
-0.550218 0.095852 1.88297 60 50 31
-0.598814 0.115652 1.86061 159 145 118
-0.575632 0.105741 1.86984 58 56 45
-0.680095 0.015438 1.8321 53 46 30
-0.702798 -0.151582 1.83697 175 170 157
-0.699442 -0.20579 1.84168 186 178 162
-0.640069 0.127857 1.83589 106 100 85
-0.685885 -0.00874352 1.82582 205 194 174
-0.684986 -0.389952 1.85492 166 154 132
-0.620686 0.109486 1.84183 53 48 37
-0.666823 0.163171 1.81935 158 166 166
-0.60834 0.0991709 1.84734 60 51 36
-0.616618 0.103285 1.84237 157 139 107
-0.606835 0.0870771 1.84671 159 137 96
-0.630576 0.064953 1.83915 76 68 48
-0.701555 -0.169496 1.82945 114 110 95
-0.68021 0.0115108 1.8208 62 51 32
-0.708992 -0.0906727 1.81857 191 182 162
-0.690009 0.00366959 1.8166 165 149 117
-0.654022 0.127419 1.82046 101 93 74
-0.628373 0.0903106 1.83285 63 53 32
-0.636531 0.108231 1.82751 152 139 114
-0.70877 0.0303085 1.80487 103 101 80
-0.693113 0.00913235 1.80899 119 110 83
-0.70771 -0.108008 1.81304 112 110 96
-0.639798 0.0787641 1.82276 54 45 27
-0.642822 0.0854924 1.82028 134 116 86
-0.702485 -0.0216137 1.80561 191 175 149
-0.649182 0.0710912 1.81829 168 148 108
-0.701765 -0.0339327 1.80575 189 177 157
-0.669479 0.0511507 1.81051 124 102 68
-0.656055 0.112141 1.8108 100 97 80
-0.653553 0.0931658 1.81223 65 64 52
-0.707366 0.0334219 1.79512 90 87 71
-0.695312 -0.244872 1.8187 212 204 190
-0.661487 0.100843 1.80503 142 133 114
-0.672316 0.13038 1.79609 103 93 73
-0.698889 -0.2207 1.81078 191 185 172
-0.670956 0.0719976 1.79841 176 153 112
-0.669847 0.0816311 1.79769 58 50 35
-0.680196 0.139412 1.78933 81 77 59
-0.673281 0.0997417 1.78803 65 59 45
-0.722907 0.0142852 1.77609 56 44 24
-0.678491 0.0883287 1.78511 137 116 81
-0.708543 -0.0297718 1.78145 95 93 75
-0.683476 0.0776409 1.7811 72 64 44
-0.691339 0.0568018 1.77794 160 138 95
-0.68084 0.105051 1.77818 143 133 114
-0.68378 0.133038 1.77509 30 24 16
-0.68134 0.0973921 1.77722 139 127 105
-0.678635 0.109612 1.77635 42 38 29
-0.691069 0.113608 1.77088 62 58 44
-0.687117 0.0778053 1.7732 135 109 70
-0.694638 0.0588163 1.76673 106 85 54
-0.696727 -0.210177 1.78191 148 136 114
-0.699491 0.0555802 1.76148 165 147 109
-0.701509 0.0511703 1.75916 101 86 57
-0.690103 0.113771 1.7581 120 107 80
-0.694409 0.101752 1.75713 145 130 102
-0.696242 0.0933097 1.75665 53 48 35
-0.693507 0.116117 1.7534 58 53 39
-0.701822 0.0581754 1.7537 127 99 57
-0.692447 0.12433 1.75122 108 99 75
-0.699687 0.097564 1.74675 65 59 43
-0.701142 0.0855784 1.74635 135 115 80
-0.705195 0.0579242 1.74665 168 151 118
-0.695922 -0.226661 1.76567 134 125 105
-0.70607 0.0466457 1.74204 197 183 153
-0.698829 0.112578 1.74017 59 57 46
-0.756895 -0.0493607 1.73138 27 21 11
-0.76018 0.0171827 1.72435 160 126 76
-0.707484 0.0590441 1.73718 77 68 41
-0.701492 0.115755 1.73219 161 148 124
-0.746003 0.0228215 1.72339 177 152 116
-0.712002 0.0497042 1.72974 83 68 43
-0.702406 0.129099 1.72587 75 77 69
-0.771805 -0.02618 1.71385 100 95 76
-0.709814 0.0835089 1.72612 59 50 30
-0.714666 0.046101 1.72514 175 159 131
-0.768585 -0.013478 1.71185 79 80 72
-0.707411 0.0974024 1.72283 127 112 85
-0.711817 0.072113 1.72225 133 119 92
-0.704458 0.113905 1.72136 133 123 101
-0.695184 -0.247709 1.74702 164 147 120
-0.735392 -0.0550487 1.7201 23 17 8
-0.723054 0.153131 1.70889 158 167 166
-0.706544 0.124144 1.71554 75 77 70
-0.718011 0.103286 1.71265 122 109 86
-0.715617 0.0509873 1.71192 89 75 50
-0.765225 -0.0230126 1.69956 88 83 66
-0.725061 0.0252806 1.70195 46 36 20
-0.716412 0.0775113 1.69977 53 46 32
-0.716333 0.039104 1.70154 198 181 149
-0.71709 0.0604091 1.69907 134 115 83
-0.715753 0.111 1.69624 47 42 31
-0.747413 -0.0220808 1.69553 77 69 55
-0.718453 0.0852172 1.6938 37 33 25
-0.692101 -0.240804 1.72352 158 144 118
-0.717933 0.120041 1.68914 69 59 40
-0.722348 0.0208268 1.6932 119 102 74
-0.718895 0.0926391 1.68518 35 31 23
-0.722342 0.0138675 1.68291 152 132 101
-0.718649 0.081578 1.67875 111 102 79
-0.72596 0.031299 1.67522 175 153 114
-0.716939 0.124909 1.67093 65 59 43
-0.718538 0.0514194 1.67141 168 143 98
-0.72468 0.080962 1.66598 49 47 36
-0.725087 -0.0459202 1.6732 35 26 12
-0.717153 0.112642 1.66245 98 92 77
-0.688706 -0.232553 1.69502 165 150 123
-0.716687 0.123373 1.65435 74 69 53
-0.719693 0.0422655 1.65843 110 91 63
-0.721167 -0.0416468 1.65978 158 141 111
-0.719654 0.0662557 1.65186 131 115 87
-0.718092 0.108815 1.64633 88 88 76
-0.699249 -0.107631 1.66171 126 109 84
-0.712886 -0.053343 1.65319 122 109 82
-0.708429 -0.0678707 1.65494 109 94 67
-0.687199 -0.222546 1.67064 161 147 123
-0.694207 -0.128728 1.65119 149 134 113
-0.707286 -0.0590929 1.6413 117 100 75
-0.727396 0.0315957 1.62866 34 23 9
-0.714077 -0.0429156 1.63671 29 23 12
-0.720451 0.0405685 1.61302 191 169 129
-0.695209 -0.107018 1.63026 152 137 114
-0.705502 -0.0368989 1.62178 150 126 91
-0.716823 0.0220396 1.61305 33 25 12
-0.685624 -0.211207 1.63721 151 138 114
-0.699745 -0.0737156 1.62067 138 124 99
-0.7055 -0.0200501 1.61514 82 68 43
-0.685477 -0.187528 1.62506 151 137 112
-0.700532 -0.044144 1.61005 52 45 27
-0.712644 0.124133 1.5936 3 3 3
-0.688091 -0.154378 1.61844 145 130 102
-0.711141 0.0870546 1.59384 47 46 36
-0.710498 0.0554923 1.59509 43 40 31
-0.710741 0.0417387 1.59426 103 94 64
-0.697671 -0.00913944 1.59835 73 59 37
-0.687539 -0.16472 1.60921 198 188 166
-0.700659 0.00713507 1.59231 48 43 32
-0.707033 0.0471235 1.58226 44 40 27
-0.707634 0.0719618 1.57705 97 88 66
-0.688036 -0.144283 1.59428 112 98 74
-0.706998 0.0245287 1.57613 147 127 88
-0.701715 -0.0113112 1.57982 98 88 63
-0.705356 0.0595607 1.57367 141 119 78
-0.691517 -0.105355 1.58804 139 127 103
-0.685345 -0.192445 1.59479 194 184 163
-0.705916 0.0892644 1.56649 34 31 24
-0.689162 -0.153937 1.58667 130 122 102
-0.715399 0.137587 1.55937 158 167 167
-0.70483 0.041032 1.56727 155 140 111
-0.70802 0.114368 1.5611 59 58 46
-0.703522 0.0546918 1.55806 146 129 88
-0.704592 0.0155338 1.55839 44 36 22
-0.685958 -0.195903 1.57744 113 101 82
-0.701572 0.0399002 1.55329 124 112 88
-0.703409 0.0686107 1.54803 50 44 29
-0.690447 -0.181232 1.56645 91 85 69
-0.700121 0.0253583 1.54802 162 141 108
-0.692822 -0.119708 1.5597 135 122 99
-0.695314 -0.00886127 1.55112 39 32 19
-0.699888 0.0510526 1.54054 50 42 26
-0.695836 -0.171664 1.5527 176 160 130
-0.704452 0.00164671 1.5386 63 59 42
-0.696704 0.0383147 1.53644 53 51 41
-0.698858 0.0723217 1.53261 33 29 21
-0.691765 -0.012039 1.53795 90 76 54
-0.694634 0.0277463 1.52736 57 53 38
-0.696412 0.0611727 1.5216 94 83 61
-0.709936 -0.069429 1.52624 48 43 28
-0.70038 0.0116439 1.52232 45 43 33
-0.693646 -0.00552786 1.52451 79 74 56
-0.700328 0.111106 1.51224 63 58 42
-0.694642 0.0692666 1.50945 43 43 34
-0.691004 0.0244688 1.50651 155 141 116
-0.690878 0.0621639 1.49921 99 76 47
-0.689631 0.0380465 1.50081 105 92 66
-0.689176 0.075456 1.49702 96 84 64
-0.688163 0.0522958 1.49037 34 31 22
-0.691928 0.0175128 1.48672 130 115 88
-0.687714 0.0726059 1.4829 101 92 72
-0.687185 0.0410669 1.48353 164 147 121
-0.945809 0.0608502 1.81832 144 128 102
-0.937224 0.117559 1.81513 44 38 28
-0.88929 0.0915122 1.80532 38 35 26
-0.833422 0.0484494 1.79954 101 84 59
-0.790434 0.0617602 1.78922 101 84 55
-0.590502 0.0963871 1.74993 129 116 93
-0.215523 0.0989363 1.6869 33 30 20
-0.182918 0.088752 1.68346 107 93 63
-0.208055 0.145826 1.70731 47 48 48
-0.159929 0.0678385 1.67988 114 105 84
-1.00969 0.0813965 1.82506 49 46 38
-1.00491 0.0492954 1.82703 151 135 111
-0.966598 0.0488442 1.82052 90 81 61
-0.892578 0.0643369 1.80691 63 56 39
-0.870102 0.0495007 1.80494 158 139 106
-0.821337 0.079605 1.79305 139 119 83
-0.802844 0.0989108 1.78868 60 55 38
-0.784969 0.0624038 1.78983 100 84 55
-0.764345 0.0777653 1.78435 147 128 92
-0.330911 0.120754 1.72167 53 50 40
-0.153588 0.0709636 1.69937 153 137 108
-0.159052 0.0288872 1.70282 125 111 81
-0.139663 0.0824031 1.69648 142 125 85
-0.113853 0.0705266 1.69358 68 61 43
-0.0895534 0.063271 1.69209 80 74 55
-0.0801059 0.0947926 1.69014 98 89 69
-0.0702596 0.0665195 1.6898 133 114 79
-0.0350505 0.0756418 1.6857 98 83 58
-1.05238 0.0981551 1.84202 59 51 40
-1.0576 0.0461418 1.84542 168 150 124
-0.441891 0.0812477 1.74368 127 112 86
-0.370788 0.0400401 1.74192 117 99 74
-0.336476 0.132025 1.72947 71 65 46
-0.334713 0.0514407 1.73747 168 148 109
-0.305257 0.0725345 1.72595 149 126 89
-0.286604 0.0994451 1.72319 117 106 82
-0.238993 0.0864667 1.71599 48 44 34
-0.239208 0.103045 1.71665 30 27 20
-0.26001 -0.0136399 1.7386 129 118 93
-0.203687 0.0892789 1.71059 90 86 72
-0.188523 -0.00446587 1.71932 147 132 98
-0.144915 0.0860439 1.70412 143 120 79
-0.159739 0.00587402 1.71443 146 130 100
-0.131829 0.0716646 1.70409 154 138 109
-0.137459 0.0305804 1.70741 126 111 81
-0.0690914 0.0946093 1.69676 127 114 87
-0.0675839 0.0643445 1.69712 83 76 57
-1.10087 0.0626044 1.853 127 106 80
-0.985089 -0.007825 1.83808 143 129 104
-0.482056 0.0547376 1.73206 126 108 82
-0.40078 0.0865976 1.715 141 131 107
-0.380678 0.126308 1.71046 40 37 31
-0.330321 0.0219718 1.71461 83 63 35
-0.2943 0.107703 1.69646 105 97 79
-0.201781 0.14588 1.70858 45 46 46
-0.15146 0.0294171 1.68065 89 74 53
-0.114608 0.12728 1.67663 64 59 43
-1.11671 0.0453606 1.85825 124 106 83
-0.993372 0.0499558 1.82808 151 136 112
-0.488904 -0.0677466 1.79079 125 123 106
-0.362767 -0.0612574 1.75206 185 174 155
-0.353697 -0.0429035 1.74532 126 105 75
-0.326461 -0.031021 1.73656 173 159 128
-0.328669 -0.0598187 1.74281 136 123 100
-0.301608 0.0241266 1.71998 81 62 34
-0.258236 0.114519 1.70199 36 33 27
-0.181853 0.0271064 1.69798 127 113 83
-0.83194 0.0378355 1.83395 196 179 150
-0.489191 0.0811553 1.72108 117 100 68
-0.442737 0.14372 1.65943 69 72 73
-0.478875 -0.0755092 1.76788 152 141 117
-0.430267 -0.0674306 1.74159 178 163 139
-0.429891 -0.0862525 1.74515 147 135 116
-0.42115 -0.050226 1.73392 127 106 76
-0.398873 0.00975051 1.71267 173 156 122
-0.398812 -0.0385271 1.72381 175 162 131
-0.378733 0.0196741 1.70549 81 62 34
-0.367085 0.0988327 1.69169 29 26 21
-0.381278 -0.0254951 1.71664 132 122 98
-0.365233 0.0811308 1.69132 48 44 35
-0.343387 0.112297 1.68488 36 34 27
-0.355109 -0.0266074 1.70684 155 139 114
-0.338883 0.020354 1.69128 61 48 27
-0.319464 -0.0170965 1.69317 158 142 111
-0.264669 0.145314 1.69577 45 47 46
-0.261588 0.156056 1.76043 157 166 166
-0.824349 -0.103114 1.88544 182 171 150
-0.79429 -0.255818 1.90988 83 81 68
-0.770731 -0.313351 1.90409 103 104 91
-0.751206 -0.263568 1.88609 65 60 46
-0.504155 -0.0573829 1.77033 54 47 31
-0.55367 -0.0751122 1.782 124 123 106
-0.484098 -0.109629 1.75919 133 120 96
-0.431546 0.0190917 1.70732 49 38 22
-0.372628 0.0055863 1.6859 84 68 42
-0.501535 0.151976 1.64684 70 70 69
-0.522451 -0.0806498 1.76146 152 141 117
-0.507112 -0.136841 1.76646 148 133 108
-0.492066 -0.057426 1.73822 122 110 90
-0.476401 -0.092126 1.73759 139 126 105
-0.467002 -0.0551996 1.72618 124 103 73
-0.459744 -0.0751199 1.72029 133 120 97
-0.446718 -0.043493 1.71539 178 165 138
-0.430038 0.0358052 1.69904 17 13 6
-0.431023 -0.0301703 1.70763 130 119 95
-0.411624 -0.0185682 1.69956 30 24 12
-0.406051 0.080886 1.67883 53 50 38
-0.373857 -0.0222136 1.68231 149 134 102
-0.308747 0.155898 1.75248 157 166 166
-0.579294 -0.0773937 1.77854 125 123 106
-0.546394 -0.0613905 1.76425 53 46 31
-0.515826 -0.113899 1.75439 133 119 95
-0.489959 -0.0868204 1.73318 176 159 129
-0.476957 -0.0440708 1.71782 163 149 120
-0.462261 0.0168753 1.70177 47 36 21
-0.475848 -0.206812 1.77354 156 142 115
-0.445769 0.0348014 1.69613 18 13 6
-0.435772 -0.190739 1.74665 162 148 128
-0.407764 0.0156946 1.67761 59 47 26
-0.865681 -0.0940773 1.96802 60 53 41
-0.611778 -0.091163 1.74833 152 141 116
-0.59878 -0.150224 1.75308 149 135 109
-0.597555 -0.1056 1.7385 136 117 90
-0.593214 -0.0683512 1.72198 125 113 93
-0.576075 -0.0670051 1.7078 131 113 86
-0.569692 -0.0366005 1.70339 36 27 12
-0.56252 -0.087615 1.70251 131 118 96
-0.570309 0.0897683 1.67023 120 107 83
-0.561406 -0.0236936 1.68961 203 188 159
-0.551067 -0.0464701 1.68618 68 59 42
-0.529034 -0.207375 1.73161 161 147 127
-0.5436 0.0735674 1.65639 48 43 33
-0.841149 0.00694916 2.09434 103 86 65
-0.868729 -0.000672198 2.02917 49 40 27
-0.864987 -0.0616404 2.03419 111 106 94
-0.937671 0.0626855 1.96191 112 91 71
-0.944699 0.113362 1.95236 117 102 82
-0.951623 0.10992 1.93502 97 82 65
-0.947996 0.0467715 1.93109 172 154 130
-0.850473 -0.0404171 1.99669 106 99 86
-0.957731 0.10285 1.91329 129 117 102
-0.961192 0.0746536 1.88818 153 135 110
-0.963715 0.0999127 1.87983 32 29 23
-0.958881 0.0517372 1.88578 141 117 88
-0.836886 -0.0821794 1.97282 63 56 45
-0.847005 -0.06398 1.96509 108 105 91
-0.926143 0.0153391 1.90456 70 63 50
-0.926479 -0.00290417 1.90457 156 137 112
-0.959949 0.071115 1.86804 70 65 53
-0.956613 0.093956 1.85057 69 63 51
-0.828505 -0.0952631 1.94067 72 67 55
-0.951785 0.0584845 1.85007 88 75 54
-0.949615 0.0768563 1.84007 155 134 110
-0.828133 -0.095891 1.91787 209 197 181
-0.941157 0.0542286 1.83311 148 132 108
-0.925055 0.00878615 1.84504 142 127 102
-0.819684 -0.110532 1.91644 102 93 77
-0.939564 0.114635 1.82948 20 17 12
-0.934518 0.0625977 1.8194 142 125 97
-0.811304 -0.12508 1.90249 133 120 102
-0.939531 0.0863774 1.81245 68 61 46
-0.818424 -0.113563 1.89016 203 194 178
-0.791622 -0.151262 1.89944 85 81 70
-0.925565 0.0689311 1.8058 154 131 94
-0.925295 0.0955062 1.80304 54 48 37
-0.808838 -0.122029 1.87685 201 189 169
-0.878474 -0.0204387 1.82584 205 193 173
-0.920536 0.0799997 1.79419 57 50 34
-0.915341 0.0929205 1.7857 156 144 120
-0.79799 -0.132003 1.86501 198 188 170
-0.910414 0.0719421 1.7876 156 137 106
-0.78472 -0.155084 1.86696 200 189 171
-0.786756 -0.139681 1.84779 121 106 88
-0.892637 0.109577 1.763 40 35 22
-0.866511 0.00165113 1.77655 64 54 36
-0.890418 0.074626 1.75886 135 114 76
-0.880243 0.0475996 1.76448 60 53 38
-0.881917 0.12219 1.7527 77 74 59
-0.872772 0.0787261 1.74373 68 58 41
-0.824042 -0.0267262 1.76973 195 185 160
-0.838535 -0.000496374 1.75635 164 149 118
-0.864283 0.114539 1.73477 102 96 73
-0.861556 0.0710863 1.73364 132 115 84
-0.826073 0.14697 1.73804 158 167 167
-0.855446 0.0531773 1.72576 66 56 35
-0.849996 0.0698875 1.72583 58 50 36
-0.840972 0.0675379 1.71801 71 62 42
-0.843376 0.0862731 1.71278 141 128 105
-0.836215 0.102097 1.71319 64 60 46
-0.830147 0.0512928 1.71206 105 85 53
-0.829966 0.0917187 1.70274 145 130 104
-0.818465 0.0662756 1.69779 172 152 116
-0.799138 0.0454589 1.6933 78 63 39
-0.806504 0.11949 1.68429 77 78 69
-0.738538 0.0120347 1.71925 159 130 86
-0.800121 0.0746109 1.68479 63 55 35
-0.793288 0.051596 1.68696 145 127 95
-0.681628 -0.0941247 1.72838 156 142 117
-0.615934 -0.23857 1.77724 162 145 117
-0.613868 -0.231838 1.75305 158 144 118
-0.660935 -0.0752428 1.68071 121 110 89
-0.606965 -0.222888 1.7263 167 153 125
-0.712422 0.0839194 1.6438 119 107 83
-0.646225 -0.0566457 1.66389 87 81 63
-0.640665 -0.0545176 1.65275 149 132 105
-0.653565 -0.00482488 1.64108 113 87 52
-0.660428 0.113762 1.62494 94 93 79
-0.65798 0.0980124 1.62219 98 89 72
-0.628887 -0.0428407 1.64162 91 77 53
-0.65044 0.0556949 1.62389 147 122 82
-0.636858 -0.016257 1.63353 78 62 37
-0.638141 -0.00262311 1.63191 60 48 27
-0.622542 0.12856 1.62045 2 3 3
-0.61208 -0.0452105 1.63428 153 138 107
-0.616094 0.0461987 1.62176 101 92 63
-0.58907 -0.0334952 1.62558 144 128 98
-0.594261 0.0997574 1.61322 88 89 75
-0.5879 0.0772861 1.61307 97 87 66
-0.581087 0.0652457 1.61098 142 119 79
-0.572168 0.0728392 1.6109 152 136 103
-0.560193 0.100639 1.61073 108 102 86
-0.566351 0.074478 1.60742 73 62 42
-0.504616 0.141346 1.6233 48 49 48
-0.5324 0.116889 1.6099 69 67 54
-0.534006 0.0579522 1.61008 59 54 40
-0.521556 0.0459776 1.61164 70 64 49
-0.512237 0.00387788 1.60875 38 32 19
-0.437364 0.0783209 1.61276 123 111 85
-0.414473 0.0801036 1.61304 92 84 65
-0.392829 0.0748435 1.61511 95 83 63
-0.325881 0.0856999 1.62271 48 45 37
-0.330522 0.0467818 1.61931 152 139 115
-0.292828 0.0935093 1.62472 31 28 21
-0.293438 0.0601734 1.62351 105 92 66
-0.227154 0.0834045 1.63476 44 38 26
-0.798559 0.164014 2.15179 158 167 167
-0.802742 -0.0746057 2.123 189 174 150
-0.878994 0.138338 2.03949 70 67 58
-0.899594 0.0958818 2.0187 83 73 59
-0.8667 -0.0477119 2.04359 84 78 69
-0.815852 -0.335188 2.05361 193 179 155
-0.927077 0.134015 1.96526 90 78 59
-0.946005 0.144393 1.92261 159 145 138
-0.85098 -0.0549903 1.97747 97 92 77
-0.953397 0.0441154 1.91007 109 92 71
-0.958888 0.0731272 1.90423 103 89 69
-0.922585 -0.00550291 1.9183 162 145 124
-0.848171 -0.051339 1.95088 53 44 30
-0.92891 0.0137286 1.90378 54 50 40
-0.930347 -0.0147863 1.89454 159 137 117
-0.958876 0.0330024 1.87602 145 120 92
-0.942369 0.00582741 1.88001 74 66 53
-0.961845 0.0773805 1.86059 66 65 55
-0.844572 -0.063394 1.92201 96 86 71
-0.842155 -0.0816365 1.9189 144 131 111
-0.955821 0.122942 1.85001 88 82 63
-0.959096 0.101517 1.83983 46 41 31
-0.842117 -0.0708553 1.89853 210 197 178
-0.833981 -0.0921774 1.89445 153 141 119
-0.945509 0.111241 1.82107 88 82 62
-0.9353 0.0848727 1.78351 81 66 47
-0.930187 0.10389 1.78279 121 106 84
-0.932236 0.0666415 1.77494 57 48 30
-0.900089 0.000230506 1.77793 60 55 42
-0.913311 0.106599 1.76276 38 32 20
-0.859964 -0.0325612 1.78583 63 56 42
-0.913904 0.0430725 1.76002 60 53 38
-0.914934 0.0867799 1.7539 51 47 39
-0.900766 0.119495 1.75332 67 65 52
-0.91434 0.069552 1.7487 60 50 31
-0.89989 0.105556 1.74255 106 100 85
-0.701209 -0.387957 1.8468 166 154 132
-0.689399 -0.440916 1.85296 148 136 115
-0.903835 0.0702904 1.73389 63 53 32
-0.718312 -0.185598 1.80855 113 110 94
-0.879297 0.111372 1.72358 103 93 73
-0.869143 0.12107 1.72329 81 77 59
-0.884248 0.0636065 1.71198 72 64 44
-0.849297 0.117992 1.69558 76 70 55
-0.717865 -0.0779288 1.74833 56 49 36
-0.71047 -0.0748823 1.7428 50 44 27
-0.770481 0.0101652 1.71438 160 131 88
-0.841952 0.0958168 1.67763 63 57 42
-0.847057 0.0703964 1.67774 60 52 34
-0.844369 0.0637071 1.67553 54 48 34
-0.836841 0.140658 1.67206 158 167 166
-0.818613 0.0777428 1.66637 48 42 29
-0.706994 -0.0212215 1.70727 77 69 55
-0.645461 -0.237447 1.74833 158 144 118
-0.702476 -0.0624329 1.7011 85 75 55
-0.748529 -0.00715245 1.67785 159 132 90
-0.801318 0.0753739 1.65363 111 102 79
-0.802916 0.067345 1.65284 122 107 79
-0.758033 0.120172 1.65103 93 86 66
-0.68346 -0.045431 1.68452 35 26 12
-0.78554 0.070145 1.6461 139 127 104
-0.787906 0.0562316 1.64501 145 124 90
-0.763387 0.108394 1.64827 98 92 77
-0.642087 -0.228989 1.72061 165 150 123
-0.750565 0.107576 1.64674 44 41 34
-0.75758 0.0997156 1.64461 110 98 77
-0.741801 0.120843 1.64631 74 69 53
-0.74797 0.11151 1.64456 123 116 98
-0.679948 -0.0657097 1.67523 180 168 139
-0.681841 -0.0326884 1.66868 205 190 161
-0.710466 -0.000590362 1.65744 53 43 25
-0.698311 -0.0216908 1.65916 166 145 109
-0.745459 0.0819411 1.63797 117 106 82
-0.709974 0.00395074 1.65327 55 44 26
-0.751924 0.0547244 1.63558 75 70 50
-0.662125 -0.107341 1.67205 126 109 84
-0.697808 -0.00772307 1.65328 66 58 40
-0.739121 0.0678379 1.63581 134 118 88
-0.682566 0.0191835 1.6524 17 13 6
-0.702163 0.119737 1.63731 87 84 68
-0.723403 0.0510636 1.63599 68 62 44
-0.66145 -0.0579958 1.6611 87 81 63
-0.686543 -0.00296817 1.64833 86 67 39
-0.686339 0.00455261 1.64522 61 53 35
-0.708741 0.0870929 1.632 82 83 73
-0.650434 -0.128676 1.66381 149 134 113
-0.672815 -0.00363086 1.64204 115 92 61
-0.696622 0.0869044 1.62742 28 27 22
-0.696552 0.0662707 1.62649 49 45 35
-0.664922 -0.00596391 1.63885 118 90 54
-0.646267 -0.0356746 1.64656 163 144 111
-0.659261 -0.0630764 1.64287 149 134 111
-0.633409 0.0348337 1.64019 143 124 90
-0.668912 0.113876 1.62282 94 93 79
-0.646097 -0.0344963 1.63802 150 126 91
-0.662123 0.123508 1.62171 60 58 45
-0.643974 -0.00764032 1.63483 76 65 43
-0.664911 0.0963047 1.62188 104 96 78
-0.664329 0.0980693 1.62056 94 86 70
-0.661254 0.10358 1.62036 37 34 28
-0.643613 -0.0170678 1.63186 82 68 43
-0.638243 -0.00295393 1.63167 60 47 26
-0.628881 0.0122522 1.63261 96 88 64
-0.649712 0.055676 1.6239 144 121 81
-0.643656 0.122877 1.61862 73 71 57
-0.640236 0.0886389 1.62002 124 113 94
-0.632036 -0.0405668 1.63005 52 45 27
-0.628233 -0.0464866 1.63077 149 133 101
-0.633838 0.128155 1.61751 3 3 3
-0.63433 -0.153801 1.63748 145 130 102
-0.560827 0.0494108 1.6331 103 94 64
-0.603746 -0.0345408 1.62224 147 132 103
-0.514008 0.0804784 1.62824 97 88 66
-0.434914 0.0404743 1.64516 147 127 88
-0.544673 -0.000984645 1.62006 126 112 82
-0.442171 0.0799378 1.63385 73 63 42
-0.582176 0.115254 1.59831 67 65 51
-0.514622 0.00412291 1.60782 39 32 19
-0.449445 0.0900387 1.61747 29 28 21
-0.860538 0.0605933 1.49644 33 29 21
-0.982174 0.0473007 1.46819 124 112 87
-0.71067 -0.0118055 1.53429 90 76 54
-1.77666 -0.0241716 1.28657 82 76 59
-1.13712 0.0377323 1.42737 90 82 63
-1.50024 0.00981722 1.34285 94 83 61
-2.80344 -0.072499 1.05254 47 44 34
-2.29836 -0.0429735 1.1651 88 81 62
-2.14158 -0.0406288 1.19977 130 111 78
-2.03907 -0.034273 1.21962 121 112 93
-1.27343 0.0300102 1.3843 43 43 34
-1.42299 -0.0145785 1.35398 206 189 155
-1.18285 0.0394428 1.40271 110 102 87
-1.62367 -0.0184414 1.30615 155 141 116
-1.14735 0.0438849 1.40546 31 29 22
-1.3727 0.0198292 1.3574 125 106 78
-1.25686 0.0312512 1.38007 51 43 32
-1.66932 -0.0135834 1.29308 105 92 66
-1.15613 0.0424633 1.39912 96 84 64
-1.37856 -0.014228 1.35009 194 177 147
-1.49753 -0.00294856 1.32182 41 36 25
-0.829169 0.163323 2.15281 158 167 167
-0.857961 0.0570609 2.15061 52 45 34
-0.849238 0.136232 2.14608 94 90 76
-0.819187 0.14576 2.15225 11 11 11
-0.845382 -0.0655732 2.15353 45 38 28
-0.856022 -0.0299398 2.14315 63 54 40
-0.859889 -0.045514 2.14023 124 104 80
-0.861179 0.165798 2.11876 159 167 167
-0.870009 -0.0294257 2.12922 208 194 174
-0.898079 0.0703777 2.10203 49 43 34
-0.896051 0.0448592 2.10342 142 123 99
-0.899025 0.117355 2.09202 82 78 67
-0.904616 0.0496765 2.09182 44 37 30
-0.915323 0.0782971 2.07488 72 64 50
-0.91308 0.140076 2.06942 74 66 53
-0.910654 0.0550982 2.0748 75 58 42
-0.885204 -0.00965572 2.08597 138 115 86
-0.919106 0.110542 2.06769 113 92 71
-0.853296 -0.0669116 2.08994 117 94 69
-0.846357 -0.0778083 2.09233 159 138 112
-0.925698 0.0812264 2.05908 127 102 70
-0.921816 0.0434471 2.05405 147 119 85
-0.86627 0.0880991 2.02866 94 81 70
-0.949835 0.0842682 2.00445 93 79 66
-0.946906 0.0397642 2.00445 163 142 117
-0.930045 -0.38817 2.03019 132 122 104
-0.958023 0.144035 1.9831 92 81 66
-0.962665 0.119274 1.9795 100 85 70
-0.959965 0.0796859 1.98158 114 100 84
-0.816375 -0.478587 2.05699 135 159 179
-0.882577 -0.151544 2.01202 105 111 107
-0.923882 -0.397108 2.01125 43 37 22
-0.824537 -0.491059 2.04654 41 35 26
-0.968674 0.0979184 1.95817 82 64 47
-0.829645 -0.494867 2.03587 179 162 142
-0.870847 -0.195852 2.00023 49 52 46
-0.923642 -0.364012 1.99383 38 33 22
-0.907766 -0.387411 1.99025 190 179 158
-0.896154 -0.392265 1.97687 97 98 84
-0.974927 0.11011 1.91178 132 120 104
-0.893752 -0.0857874 1.9441 70 64 50
-0.829143 -0.515886 1.99272 205 192 178
-0.893883 -0.409063 1.96204 107 106 90
-0.97036 0.0614927 1.90272 141 124 98
-0.972259 0.0989227 1.89469 27 23 16
-0.934521 -0.0443232 1.91646 151 128 103
-0.878624 -0.332442 1.95239 28 23 14
-0.887355 -0.100734 1.93346 202 188 168
-0.881838 -0.116249 1.93248 77 72 59
-0.837015 -0.519711 1.97387 210 197 180
-0.938556 0.00316678 1.90267 45 41 33
-0.969803 0.0790287 1.88504 64 53 41
-0.962516 0.0437116 1.88092 173 145 108
-0.937595 -0.0453159 1.89511 172 148 123
-0.943835 -0.0314753 1.89177 159 137 116
-0.947513 -0.0108515 1.88877 67 63 53
-0.966523 0.141415 1.87046 87 78 60
-0.964155 0.0635316 1.87421 54 47 36
-0.962956 0.0965791 1.86694 83 72 57
-0.962761 0.117784 1.86094 120 97 71
-0.954696 0.0816674 1.86061 66 65 55
-0.957734 0.13464 1.85509 90 83 68
-0.954641 0.151665 1.85186 4 4 5
-0.940699 -0.0103604 1.86586 149 129 98
-0.951731 0.101322 1.84725 61 52 39
-0.948345 0.0564998 1.85042 88 75 54
-0.948032 0.0818929 1.84584 67 61 47
-0.946938 0.118832 1.83855 115 106 87
-0.940661 0.0642781 1.83909 51 47 38
-0.94165 0.0948691 1.83458 60 55 44
-0.927684 -0.00508825 1.84332 145 130 105
-0.934789 0.132713 1.82908 83 80 63
-0.934695 0.0810461 1.82855 127 116 98
-0.924834 0.0617205 1.8204 146 129 102
-0.925044 0.117884 1.81636 43 37 27
-0.928492 0.0901825 1.81346 66 60 46
-0.821844 -0.434333 1.87594 79 76 64
-0.913222 0.100975 1.80401 55 50 39
-0.887239 -0.0377654 1.82178 207 194 173
-0.814459 -0.477225 1.87521 187 172 150
-0.909294 0.124539 1.80139 21 18 12
-0.810445 -0.371789 1.86505 118 118 97
-0.804325 -0.516564 1.87318 86 83 69
-0.804584 -0.472592 1.86707 121 110 93
-0.773245 -0.491411 1.87884 89 83 65
-0.807955 -0.272741 1.84447 79 78 64
-0.893933 0.0769359 1.78474 142 123 87
-0.870402 -0.0533948 1.79717 186 171 145
-0.873086 -0.00852259 1.78622 134 123 100
-0.781948 -0.470481 1.84887 150 139 119
-0.772826 -0.480512 1.84915 213 204 188
-0.8564 -0.036559 1.78817 212 200 180
-0.87524 0.118091 1.76433 38 32 20
-0.865597 0.0439347 1.76607 60 53 38
-0.77058 -0.462862 1.83257 213 203 187
-0.781946 -0.418606 1.82423 168 156 134
-0.854768 -0.00867986 1.76895 114 104 82
-0.865873 0.132475 1.75341 64 62 49
-0.830233 0.0192252 1.75393 105 102 81
-0.789906 -0.117462 1.76989 167 157 135
-0.758074 -0.236429 1.78951 153 147 131
-0.746758 -0.251272 1.79053 148 140 122
-0.762304 -0.188986 1.76798 178 170 150
-0.733855 -0.229559 1.76981 89 86 70
-0.796784 0.00612826 1.72756 46 35 17
-0.704242 -0.254956 1.76627 164 147 120
-0.737468 -0.170225 1.7331 149 134 109
-0.756103 -0.0611887 1.71574 24 17 6
-0.738179 -0.143477 1.72103 133 119 96
-0.740381 -0.123094 1.71688 140 121 92
-0.697992 -0.247484 1.74173 157 142 117
-0.770873 0.109578 1.67133 47 42 31
-0.737696 -0.0691895 1.6936 86 77 58
-0.725054 -0.0504707 1.67687 34 25 10
-0.727229 0.0222821 1.65838 105 97 69
-0.719158 -0.0370221 1.66153 204 189 160
-0.706641 -0.113592 1.66453 125 108 81
-0.714759 0.0252921 1.65027 84 75 50
-0.726371 0.0695743 1.63804 131 115 86
-0.694562 -0.133686 1.65878 146 130 106
-0.702009 -0.0454567 1.64537 27 22 11
-0.713179 0.0455598 1.63348 198 182 156
-0.655751 -0.210552 1.66746 151 138 114
-0.702334 0.0257629 1.63054 40 30 15
-0.697858 -0.0218535 1.6302 102 87 61
-0.706807 0.0631663 1.62001 156 137 98
-0.656089 -0.187486 1.65285 148 133 111
-0.693648 0.00841662 1.61986 94 86 61
-0.662432 -0.155114 1.64113 145 131 104
-0.691017 0.127694 1.60651 3 3 3
-0.635955 -0.205143 1.64984 158 146 118
-0.690822 0.0527432 1.6084 115 103 77
-0.689744 0.0895702 1.60536 48 47 37
-0.641982 -0.16744 1.63514 141 129 106
-0.67891 -0.0230945 1.6086 196 181 148
-0.630462 -0.188127 1.63961 184 173 151
-0.671589 -0.0342406 1.60977 75 69 50
-0.681342 0.00795557 1.60264 47 42 31
-0.676238 0.0493409 1.59845 47 42 29
-0.638657 -0.14622 1.62493 191 180 160
-0.651417 -0.104318 1.61468 140 127 103
-0.673115 0.070067 1.59335 47 38 25
-0.670562 0.0271892 1.59544 149 128 89
-0.662874 0.0440748 1.58964 152 136 109
-0.65926 0.114189 1.58221 69 67 53
-0.649741 0.0199327 1.58797 45 38 22
-0.648399 0.0892502 1.57566 83 83 69
-0.642797 -0.00511278 1.58018 40 33 20
-0.631171 -0.00717784 1.57184 97 83 62
-0.607593 0.100199 1.56945 19 18 16
-0.611603 0.0222707 1.55886 208 190 157
-0.587712 0.0263949 1.54674 132 117 93
-0.594037 0.0975273 1.53685 104 89 67
-0.955883 0.0631469 1.80953 64 62 50
-0.952717 0.10691 1.81162 120 106 81
-0.945663 0.0346338 1.80928 147 129 105
-0.945068 0.12321 1.81244 74 68 49
-0.937492 0.0790216 1.81257 70 66 52
-0.923147 0.103039 1.81458 49 42 29
-0.916852 0.0238737 1.81058 170 151 124
-0.892444 0.084121 1.81802 55 50 37
-0.891775 0.10434 1.81878 38 33 21
-0.856704 0.0787827 1.82178 145 126 91
-0.842938 -0.0417041 1.81493 169 154 129
-0.837566 0.0578994 1.8228 164 142 102
-0.830396 -0.0271927 1.81713 206 193 171
-0.790097 -0.0390415 1.82146 182 167 140
-0.785511 0.132353 1.83159 95 86 66
-0.77594 0.0723299 1.83063 172 149 106
-0.751555 -0.340684 1.80308 197 189 171
-0.723818 -0.0328436 1.8294 171 158 136
-0.729091 -0.333997 1.80618 180 171 147
-0.708002 0.00167247 1.83362 131 117 92
-0.696698 0.0374924 1.8352 120 105 80
-0.659752 -0.407193 1.81189 100 99 86
-0.643435 -0.42938 1.81327 185 173 150
-0.660347 -0.266916 1.80896 149 170 185
-0.638499 -0.020167 1.83404 56 46 24
-0.637492 -0.143478 1.8274 67 64 53
-0.63154 -0.0748679 1.83267 123 111 89
-0.623645 -0.45394 1.81547 89 84 68
-0.623041 -0.419741 1.81612 65 62 52
-0.617544 -0.355783 1.81914 148 144 126
-0.620565 -0.0570271 1.83427 190 182 161
-0.606234 -0.440145 1.81661 83 77 58
-0.60367 -0.412514 1.81854 150 139 117
-0.599323 0.151135 1.85381 87 84 68
-0.605641 -0.338289 1.82081 162 157 143
-0.607382 -0.313798 1.82097 47 44 34
-0.596768 -0.463258 1.8174 199 189 172
-0.602967 -0.0408391 1.83585 108 105 83
-0.585578 -0.426461 1.81948 88 86 74
-0.575497 -0.273804 1.82678 146 138 116
-0.536292 0.105295 1.86199 145 128 95
-0.534469 0.122064 1.86276 33 29 20
-0.528113 0.136553 1.86354 99 94 80
-0.542213 -0.310189 1.82666 110 112 98
-0.52061 -0.00860386 1.85823 82 75 56
-0.517468 0.0581319 1.86115 152 134 97
-0.517845 0.159629 1.86519 61 58 45
-0.512205 0.106775 1.86513 104 90 62
-0.530552 -0.278847 1.83016 57 51 38
-0.510229 -0.472953 1.82301 210 200 183
-0.483334 -0.0400227 1.86067 157 145 116
-0.493007 -0.3983 1.83118 158 151 133
-0.467658 0.0726391 1.86976 130 111 78
-0.486522 -0.356241 1.83124 40 34 18
-0.484516 -0.293289 1.83299 52 44 27
-0.482948 -0.322238 1.83092 103 104 91
-0.469752 -0.39603 1.83232 69 65 50
-0.439855 0.120884 1.87548 90 82 67
-0.441457 -0.135529 1.85721 151 136 109
-0.432715 -0.044123 1.8653 85 78 54
-0.450975 -0.416375 1.83005 202 187 165
-0.424896 0.0767918 1.87503 65 60 46
-0.426974 0.0437434 1.87135 111 104 88
-0.443775 -0.402596 1.83091 76 68 49
-0.415884 -0.137022 1.86021 149 136 110
-0.432797 -0.382085 1.832 189 177 156
-0.410893 -0.0169205 1.86791 76 70 50
-0.409651 0.0277203 1.8713 115 95 62
-0.412197 -0.153598 1.85853 157 144 119
-0.430274 -0.366557 1.83236 110 101 84
-0.429687 -0.327414 1.83476 202 195 181
-0.405276 -0.122415 1.86214 114 104 87
-0.425026 -0.42848 1.82685 197 187 169
-0.39563 -0.0424153 1.86839 128 114 84
-0.39214 0.111999 1.87934 35 35 28
-0.417638 -0.280752 1.83673 134 127 109
-0.391547 -0.149403 1.8611 136 125 103
-0.388679 0.0360129 1.87232 119 102 73
-0.383848 0.132026 1.88085 32 33 29
-0.379928 0.0948508 1.87998 47 44 36
-0.381787 -0.123696 1.86386 144 132 110
-0.378927 -0.0934124 1.8667 136 123 102
-0.377482 0.00877975 1.8707 66 60 43
-0.37208 -0.0445427 1.87013 65 62 52
-0.365037 0.108005 1.88134 140 132 110
-0.392625 -0.250435 1.84005 147 137 117
-0.395434 -0.42165 1.82767 102 98 83
-0.362825 0.133284 1.88215 35 37 32
-0.361549 -0.0874591 1.86848 137 124 100
-0.359104 -0.164534 1.86273 182 171 147
-0.376564 -0.29679 1.83787 137 128 108
-0.373118 -0.339809 1.83646 96 89 73
-0.348011 -0.187809 1.86145 156 144 116
-0.375786 -0.411847 1.82792 216 204 187
-0.342823 -0.0130103 1.87235 75 72 55
-0.338007 0.127492 1.88287 28 28 25
-0.359351 -0.317198 1.83751 167 160 144
-0.355843 -0.356434 1.83622 180 170 149
-0.332633 -0.161763 1.86449 171 159 135
-0.328574 -0.179006 1.8642 137 125 102
-0.351433 -0.255427 1.84149 202 195 180
-0.348745 -0.333665 1.83706 65 59 42
-0.323192 0.134899 1.88357 74 75 64
-0.317796 -0.0890502 1.872 127 115 94
-0.325468 0.048841 1.8732 100 100 83
-0.349746 -0.438018 1.82547 143 131 112
-0.335699 -0.36523 1.83524 49 47 34
-0.307555 -0.167609 1.86702 162 148 122
-0.306042 -0.0621372 1.87404 63 61 50
-0.328928 -0.264379 1.84211 172 161 142
-0.329528 -0.345252 1.83623 185 172 151
-0.297935 -0.154566 1.86829 171 160 135
-0.298117 0.104554 1.88372 23 21 16
-0.294621 -0.195464 1.86514 153 140 117
-0.312515 -0.24391 1.84452 214 204 186
-0.309968 -0.280991 1.84264 113 107 88
-0.283119 -0.169897 1.86836 136 129 111
-0.31719 -0.403385 1.82751 100 97 83
-0.304516 -0.33657 1.83681 210 201 185
-0.275705 0.0776721 1.88295 46 37 21
-0.272388 0.100551 1.88415 102 90 66
-0.300206 -0.395914 1.82801 142 132 111
-0.270071 0.0159387 1.87537 26 27 20
-0.271009 0.187436 1.88426 46 48 51
-0.283932 -0.271903 1.84587 83 78 62
-0.270703 0.0547637 1.87615 92 93 79
-0.25918 -0.0914016 1.87537 168 155 129
-0.257638 -0.216868 1.8637 168 154 132
-0.256567 0.0773649 1.88295 147 127 97
-0.287329 -0.378679 1.82893 178 172 158
-0.24787 -0.18721 1.86923 196 184 160
-0.242787 -0.111613 1.87548 174 162 141
-0.247187 0.0890021 1.88356 36 33 21
-0.26859 -0.331357 1.83728 83 78 63
-0.232008 -0.180214 1.87076 129 116 96
-0.23075 -0.0807885 1.87714 69 64 49
-0.234288 0.0198292 1.87752 76 72 56
-0.225751 -0.222062 1.86414 170 157 137
-0.227871 0.0510859 1.87763 21 22 17
-0.21057 -0.0950897 1.87734 146 134 111
-0.215981 0.0849768 1.88413 17 16 11
-0.214725 0.0686865 1.882 185 169 144
-0.221872 -0.283551 1.85093 116 104 83
-0.19805 -0.174784 1.87308 138 125 101
-0.21608 -0.241082 1.85223 26 23 15
-0.194987 -0.0779294 1.87843 69 70 58
-0.197156 0.0873315 1.88452 16 16 12
-0.195151 -0.222933 1.86472 167 154 136
-0.184742 -0.103453 1.8778 138 128 106
-0.201813 -0.272472 1.85234 112 106 89
-0.190667 0.0702023 1.88289 189 173 146
-0.199857 -0.256909 1.85271 42 38 25
-0.187902 0.108589 1.8854 96 84 62
-0.176951 -0.199472 1.86924 194 183 165
-0.169141 -0.0951945 1.87842 59 54 41
-0.166386 -0.114592 1.87761 78 68 50
-0.182412 -0.296081 1.85042 202 194 178
-0.16644 0.105934 1.88539 72 67 55
-0.162992 -0.220915 1.86534 151 138 119
-0.162076 0.0767641 1.884 117 94 62
-0.17503 -0.254451 1.85168 43 37 23
-0.171144 -0.28439 1.85232 134 123 99
-0.160808 0.055225 1.88029 92 91 77
-0.145543 -0.11683 1.87778 69 61 43
-0.143755 -0.0933342 1.87882 82 78 59
-0.159234 -0.268015 1.85322 54 46 31
-0.139493 -0.182515 1.87377 154 139 114
-0.133773 -0.139951 1.87713 84 77 59
-0.140396 0.0934408 1.88512 131 117 91
-0.126474 -0.16532 1.8754 131 117 92
-0.132298 0.069566 1.8834 192 174 142
-0.140448 -0.277887 1.85215 116 99 77
-0.115423 -0.147568 1.87685 100 90 69
-0.124206 0.0389863 1.88154 84 79 61
-0.124368 0.108723 1.88559 57 57 48
-0.114916 0.0817582 1.8848 78 69 50
-0.113252 0.0229826 1.88154 86 88 73
-0.113638 0.0544946 1.88296 29 27 18
-0.105403 -0.127395 1.87728 38 36 27
-0.105551 -0.0339373 1.88088 156 143 120
-0.103732 -0.0536929 1.87954 43 44 39
-0.0959257 -0.158536 1.87601 34 31 22
-0.0935014 -0.0688516 1.87884 39 41 37
-0.0959714 -0.205199 1.86754 205 195 178
-0.0950581 0.0386871 1.88343 129 115 88
-0.0938425 0.0575242 1.88376 18 16 9
-0.0874976 -0.0459558 1.88104 123 115 96
-0.0914518 0.0759417 1.8847 25 23 14
-0.0762284 -0.168522 1.87601 198 189 169
-0.0855785 0.0957899 1.88544 71 64 48
-0.0767052 -0.0632309 1.88058 172 157 130
-0.0727522 -0.150229 1.8769 61 59 47
-0.0781059 -0.203093 1.86723 111 96 72
-0.0727823 -0.0973319 1.87826 24 27 24
-0.0659952 -0.13841 1.87705 95 93 76
-0.0637147 -0.0812765 1.8797 138 124 99
-0.057987 -0.120117 1.878 124 117 96
-0.0490664 -0.146359 1.87777 62 58 45
-0.0387874 -0.137059 1.87848 119 112 93
-0.0388256 -0.103916 1.8796 37 37 29
-0.0356146 -0.119461 1.87915 125 116 93
-0.0276126 -0.0875179 1.88051 89 83 67
-0.0212581 -0.148306 1.87786 172 157 132
-0.0371756 0.160576 1.8847 64 57 45
-0.0180848 -0.128233 1.87895 75 70 53
-0.0225964 0.0825054 1.88455 51 48 36
-0.0151907 0.100904 1.88482 60 54 39
-0.00393374 0.0631829 1.88353 98 93 76
0.00687508 -0.141397 1.87625 159 143 114
-0.00514561 0.161658 1.88419 72 73 74
0.00364467 0.0741252 1.88392 57 52 39
0.0166793 -0.118774 1.87731 54 47 33
0.0133065 0.0542091 1.88253 67 59 41
0.026388 -0.13599 1.8758 87 72 51
0.0175645 0.109646 1.8804 13 12 8
0.0255915 0.0648058 1.88313 23 19 11
0.0345784 -0.114463 1.87718 147 134 108
0.038942 -0.0875304 1.87792 67 62 50
0.0383682 0.0712981 1.88319 79 70 54
0.0556214 -0.110496 1.87492 21 18 11
0.0528577 0.0513394 1.88174 59 50 34
0.0495359 0.140526 1.88445 50 49 39
0.066354 0.0728235 1.88249 20 16 10
0.0717616 0.0508822 1.88106 169 153 123
0.0824977 0.0636806 1.88142 141 121 87
0.0897637 0.10292 1.88137 15 12 8
0.0965175 0.11964 1.88081 157 166 166
-0.908453 0.0647284 1.81383 68 60 42
-0.869966 0.105082 1.8224 110 98 74
-0.743739 0.00909892 1.83506 115 108 82
-0.599716 0.0760303 1.86657 143 121 85
-0.592565 -0.448073 1.81827 151 141 119
-0.489868 0.0347997 1.88505 121 105 76
-0.445166 -0.0396242 1.88607 157 145 116
-0.42267 -0.0811034 1.88519 138 125 101
-0.408762 -0.133619 1.87952 151 136 109
-0.392612 -0.0435897 1.89263 85 78 54
-0.376693 0.0820286 1.90882 137 120 92
-0.382081 0.042419 1.90189 111 104 88
-0.373968 0.123385 1.91109 104 93 72
-0.380896 -0.120981 1.88443 116 103 78
-0.358465 0.0935053 1.91214 66 53 35
-0.370279 -0.0169448 1.89588 76 70 50
-0.365906 0.0267216 1.90136 115 95 62
-0.418165 -0.37472 1.83483 133 125 104
-0.354857 -0.0419282 1.89669 128 114 84
-0.341789 0.108357 1.91404 35 35 28
-0.358477 -0.125287 1.88751 198 188 165
-0.357445 -0.147202 1.88495 136 125 103
-0.334816 0.0699926 1.91201 174 156 129
-0.329541 0.0916711 1.91493 47 44 36
-0.344831 -0.0148268 1.89777 78 70 47
-0.340368 -0.0919349 1.89375 136 123 102
-0.314824 0.104374 1.91643 140 132 110
-0.322523 -0.0463994 1.89953 123 117 95
-0.384469 -0.385829 1.83485 218 212 200
-0.329649 -0.159265 1.88651 180 169 147
-0.304746 0.0824723 1.91511 154 133 100
-0.3618 -0.298665 1.84171 153 144 123
-0.298927 -0.159129 1.88882 171 159 135
-0.297013 0.0245002 1.89924 103 101 82
-0.275316 0.130526 1.91779 74 75 64
-0.277984 -0.0875643 1.90083 127 115 94
-0.337752 -0.281487 1.84436 145 135 116
-0.280068 0.0318575 1.90097 89 89 75
-0.33011 -0.252285 1.84704 133 123 103
-0.273056 -0.164732 1.89225 162 148 122
-0.265687 -0.0612168 1.90342 63 61 50
-0.252517 0.0969218 1.91732 118 103 77
-0.262542 -0.1922 1.88883 153 140 117
-0.243885 0.0800394 1.91627 124 106 76
-0.314329 -0.349511 1.8356 99 85 61
-0.244073 -0.0754758 1.90387 153 144 124
-0.247298 -0.127749 1.89805 138 124 100
-0.248579 -0.166932 1.89397 136 129 111
-0.227655 0.0974265 1.91711 102 90 66
-0.228709 -0.0649337 1.9052 112 106 86
-0.230088 -0.161366 1.89566 159 144 118
-0.234294 0.0150544 1.90196 26 27 20
-0.21528 -0.0816145 1.90501 91 83 64
-0.230165 -0.213471 1.88449 168 154 132
-0.220874 0.184467 1.91544 157 166 167
-0.213293 -0.156267 1.89767 57 54 43
-0.207542 0.0693937 1.91316 73 60 40
-0.19934 0.0188392 1.90403 76 72 56
-0.200119 -0.218662 1.88393 170 157 137
-0.18301 -0.174105 1.89761 138 121 96
-0.176352 0.0822605 1.91437 17 16 11
-0.175448 0.108966 1.91554 81 71 55
-0.177449 0.0664202 1.91052 185 169 144
-0.165583 -0.0616264 1.90654 73 75 64
-0.165224 -0.171584 1.89865 138 125 101
-0.157959 -0.0900409 1.90587 56 55 45
-0.201926 -0.283529 1.85931 170 160 142
-0.155163 0.0977148 1.91433 78 67 47
-0.191654 -0.269607 1.86057 112 106 89
-0.154688 0.0679323 1.91083 189 173 146
-0.139424 -0.157824 1.90092 109 95 72
-0.136571 -0.0988365 1.90529 122 111 90
-0.136561 0.0971596 1.91353 95 83 61
-0.128057 -0.144958 1.90203 140 127 102
-0.12507 -0.118862 1.90354 124 113 93
-0.127425 0.074275 1.91138 117 94 62
-0.132293 -0.216254 1.8827 97 84 65
-0.111486 -0.0918612 1.90474 82 78 59
-0.109546 -0.136053 1.90243 31 31 23
-0.109754 -0.15429 1.90099 182 170 147
-0.151197 -0.261621 1.85979 80 75 62
-0.106909 0.0905652 1.91194 131 117 91
-0.0991802 -0.125557 1.9025 73 70 59
-0.0911706 -0.148062 1.90111 152 140 116
-0.0923551 0.105491 1.9115 57 57 48
-0.0836896 0.0791801 1.91025 78 69 50
-0.0842947 0.0525506 1.90693 29 27 18
-0.0760954 -0.0338827 1.9051 156 143 120
-0.0757252 -0.0531451 1.90263 43 44 39
-0.0742289 0.0298666 1.90668 74 66 49
-0.0691123 -0.155818 1.89834 34 31 22
-0.0661388 -0.0680404 1.90157 39 41 37
-0.0650486 0.0556865 1.90758 18 16 9
-0.0504973 -0.165915 1.8977 198 189 169
-0.0566272 0.0928742 1.9095 71 64 48
-0.0469493 -0.147726 1.89872 61 59 47
-0.0496963 0.0293336 1.90691 55 51 37
-0.047326 -0.0959337 1.89974 24 27 24
-0.0439847 -0.0542206 1.90446 60 56 43
-0.0416714 -0.0835822 1.9013 177 163 136
-0.0456541 0.0705961 1.90798 110 100 77
-0.0356111 -0.128572 1.89846 107 102 80
-0.0254541 -0.0733312 1.90324 130 120 96
-0.0245404 -0.143928 1.89885 62 58 45
-0.0245095 -0.118726 1.89938 115 108 88
-0.0142948 -0.102387 1.90078 37 37 29
-0.00259189 -0.117912 1.89995 100 95 79
-0.000973147 -0.142968 1.89851 115 101 77
-0.0150885 0.157386 1.90371 64 57 45
0.0172126 0.0613646 1.90218 98 93 76
0.0355468 0.0680391 1.90084 18 18 14
0.0434359 -0.11549 1.89339 79 67 45
0.038012 0.0509082 1.89891 86 73 50
0.031649 0.105995 1.89309 13 12 8
0.0444844 0.149539 1.89953 73 76 78
0.0557893 0.0697595 1.89905 79 70 54
0.0783144 0.0533936 1.89532 89 75 51
0.0809038 0.0699644 1.89603 20 16 10
-0.606394 -0.458193 1.81754 85 80 68
-0.607991 -0.440467 1.81548 83 77 58
-0.520272 -0.277444 1.83699 57 51 38
-0.486046 -0.400922 1.84122 120 109 92
-0.388891 -0.050547 1.91035 99 91 70
-0.274978 -0.0276379 1.92255 90 86 68
-0.216497 -0.143788 1.91386 176 164 140
-0.198618 0.0797448 1.93949 33 27 15
-0.196209 0.0950987 1.94027 102 90 66
-0.210748 0.0147066 1.91947 26 27 20
-0.194785 -0.0888228 1.92355 168 155 129
-0.283696 -0.329516 1.82652 83 78 63
-0.161762 0.0165282 1.9204 71 69 54
-0.149868 0.107123 1.93504 81 71 55
-0.137428 -0.0760421 1.92315 69 70 58
-0.117147 -0.0977924 1.92063 122 111 90
-0.1622 -0.267761 1.85664 121 112 94
-0.0344711 0.0696329 1.91735 110 100 77
-0.778461 -0.321644 1.77339 146 136 110
-0.744734 -0.30228 1.77163 78 71 53
-0.468869 0.0557864 1.89844 61 55 36
-0.513839 -0.407652 1.82229 120 109 92
-0.37628 -0.0433846 1.90376 85 78 54
-0.454756 -0.370058 1.80735 158 147 128
-0.303725 0.0738233 1.93065 88 77 53
-0.33716 -0.133714 1.89162 202 191 171
-0.292157 -0.14906 1.88899 181 169 143
-0.174595 -0.0624317 1.89955 73 75 64
-0.137571 -0.136359 1.8886 130 116 96
-0.116898 0.107219 1.89169 57 57 48
-0.103359 0.0305157 1.88274 74 66 49
-0.089161 0.0437463 1.88208 81 76 61
-0.0761252 -0.0556086 1.87738 60 56 43
-0.0761912 -0.0859217 1.87207 177 163 136
-0.0697831 -0.121384 1.86791 124 117 96
-0.0526646 -0.105309 1.86762 37 37 29
-0.39906 -0.313117 1.80647 123 115 97
-0.385205 -0.288665 1.80962 145 135 116
-0.376776 -0.258732 1.81277 133 123 103
-0.353715 -0.286441 1.81021 113 107 88
-0.175456 -0.146896 1.90939 180 167 141
-0.176402 0.0166232 1.90918 71 69 54
-0.180758 0.0542897 1.90525 83 83 72
-0.25916 -0.286384 1.82226 116 104 83
-0.235367 -0.274173 1.8206 43 40 31
-0.23454 -0.300058 1.80942 202 194 178
-0.0901888 0.0300227 1.89358 74 66 49
-0.0845919 -0.033319 1.89277 32 31 23
-0.0643829 -0.0552988 1.88727 60 56 43
-0.0615605 -0.0815466 1.88151 138 124 99
-0.0624082 -0.130425 1.87564 107 102 80
-0.0435429 -0.104154 1.87553 37 37 29
-0.701108 0.0316698 1.84955 104 100 79
-0.638208 -0.454935 1.78929 151 141 119
-0.559427 -0.285854 1.79881 118 123 112
-0.308177 -0.0461023 1.90966 123 117 95
-0.322791 -0.1694 1.87936 196 186 165
-0.297124 -0.01307 1.90495 75 72 55
-0.276329 -0.0875799 1.90202 127 115 94
-0.280002 -0.17353 1.8782 178 168 146
-0.256113 -0.173299 1.87587 91 78 59
-0.139661 -0.0473756 1.83756 123 115 96
-0.129029 -0.0835047 1.82436 138 124 99
-0.552741 -0.297069 1.78774 52 44 27
-0.291564 0.0776481 1.94984 95 75 43
-0.332326 -0.0415239 1.91234 128 114 84
-0.285697 0.112982 1.952 133 125 106
-0.27968 0.0961271 1.95134 116 105 81
-0.320268 -0.0216435 1.91019 35 31 19
-0.308635 -0.0461407 1.90934 123 117 95
-0.331459 -0.156911 1.87844 92 84 68
-0.297953 -0.0278198 1.90618 90 86 68
-0.299668 -0.0131594 1.90314 75 72 55
-0.267684 -0.0517761 1.90055 48 45 34
-0.288802 -0.173774 1.87178 178 168 146
-0.256297 -0.0758283 1.89486 153 144 124
-0.267754 -0.170307 1.86892 131 119 97
-0.242676 -0.0905099 1.88774 168 155 129
-0.252233 -0.158455 1.86836 57 54 43
-0.232613 -0.150209 1.8657 180 167 141
-0.235781 -0.166786 1.86094 135 120 98
-0.174473 0.0332037 1.82423 74 66 49
-0.637729 -0.0749304 1.82878 123 111 89
-0.430103 0.0591756 1.92504 79 69 44
-0.273074 0.129302 1.9564 93 91 80
-0.261625 0.104807 1.95291 27 27 22
-0.252253 0.0799472 1.94285 94 78 52
-0.32459 -0.161239 1.87026 171 159 135
-0.248981 -0.0700362 1.88508 46 45 35
-0.386089 -0.289349 1.72736 116 104 83
-0.664182 -0.449963 1.76573 76 71 55
-0.42771 0.0332396 1.92541 121 105 76
-0.297491 0.0987079 1.95773 28 27 21
-0.302967 0.0704852 1.95117 96 77 49
-0.337643 -0.0421515 1.90863 128 114 84
-0.328076 -0.0223358 1.90471 35 31 19
-0.317693 -0.0468842 1.90292 123 117 95
-0.309638 -0.0286358 1.89785 90 86 68
-0.285638 -0.0623369 1.88887 63 61 50
-0.294663 -0.175797 1.84713 91 78 59
-0.639599 -0.160933 1.79987 177 170 153
-0.663387 -0.243601 1.77172 85 84 71
-0.306584 0.117539 1.95671 104 93 72
-0.352841 -0.161877 1.85008 171 159 135
-0.945546 -0.270313 1.63515 149 170 185
-0.701219 -0.166113 1.76009 177 170 153
-0.749324 -0.247612 1.71723 85 84 71
-0.309894 -0.0433033 1.94904 85 78 54
-0.288612 -0.0419047 1.94271 128 114 84
-0.356514 -0.160167 1.83833 185 173 148
-1.1207 0.0918319 1.45414 87 84 68
-0.46092 -0.149815 1.91562 177 170 153
-1.21689 -0.0548788 1.35153 99 91 70
-1.18911 -0.0515734 1.34983 85 78 54
-1.31181 0.0252083 1.25559 137 120 92
-1.13045 -0.0531656 1.35909 128 114 84
-0.757682 -0.180085 1.52722 172 162 139
-0.729996 -0.187447 1.52846 178 168 146
0.0836988 0.141741 2.06554 35 36 36
-0.608259 0.171242 1.86138 70 74 76
-0.477787 -0.151231 1.90436 177 170 153
-1.03237 -0.066117 1.49622 157 145 116
-0.988898 -0.0683863 1.48579 129 111 76
-1.06325 0.0465893 1.40661 104 93 72
-0.916735 0.0617034 1.82101 146 130 104
-0.938949 0.0844119 1.80141 130 117 92
-1.02533 0.106446 1.63993 125 108 78
-1.01355 0.0389481 1.5964 143 121 85
-0.79374 0.167589 1.55976 31 31 27
-0.018989 0.0285122 2.14377 42 35 20
-0.840995 0.183191 1.51344 71 72 61
-0.520871 0.116073 1.73666 121 105 76
0.148016 0.0110761 2.25438 118 100 68
0.0542723 0.0235621 2.18317 37 33 18
-0.426602 0.102369 1.79316 20 20 13
-0.476767 0.112938 1.7547 119 103 75
-0.517187 0.121101 1.72479 22 20 16
0.106862 0.0186758 2.21652 116 99 72
0.1986 0.00894917 2.28076 98 88 64
-0.291375 0.0824351 1.88162 117 99 69
-0.353343 0.093595 1.83478 103 91 66
-0.429336 0.112181 1.76853 110 97 73
-0.278153 0.0842623 1.88096 31 25 13
-0.212086 0.0733942 1.92978 47 38 22
-0.238493 0.0785203 1.90813 89 77 51
-0.370836 0.103164 1.80733 130 108 76
-0.432353 0.115545 1.75877 17 17 12
-0.248585 0.0826734 1.89473 77 71 50
-0.173126 0.0704325 1.94966 146 126 98
-0.274358 0.0910159 1.86323 18 17 11
0.326257 0.00588303 2.34595 105 106 90
1.26558 -0.0276832 3.01629 48 47 37
-0.185557 0.0811258 1.91938 63 59 39
-0.222245 0.088222 1.89017 112 102 84
1.40292 -0.023582 3.11899 87 78 60
1.3609 -0.0250791 3.08747 137 127 102
-0.412612 0.129112 1.73462 74 65 49
1.36206 -0.0250404 3.08835 99 93 77
1.3082 -0.0264908 3.04723 75 76 63
1.59168 -0.0148459 3.26516 148 135 112
-0.13217 0.0822747 1.93469 17 17 11
-0.393187 0.133529 1.73115 15 15 12
-0.253079 0.10534 1.83856 78 67 47
1.82517 0.00241067 3.4457 130 112 85
-0.316064 0.119292 1.78592 98 86 64
1.29808 -0.0265662 3.03885 73 75 64
1.45417 -0.021921 3.15992 72 74 62
1.58714 -0.0154442 3.26344 57 56 45
1.52568 -0.0187507 3.21572 105 99 80
-0.104387 0.0817724 1.94577 53 51 39
1.71879 -0.00699838 3.36752 139 130 107
-0.201455 0.102362 1.86265 89 77 56
