ply
format ascii 1.0
element vertex 347
property float x
property float y
property float z
property uchar red
property uchar green
property uchar blue
end_header
-0.229006 0.0337993 2.53988 113 1 0
-0.225738 0.0246515 2.53357 244 238 238
-0.162778 -0.26731 2.58036 108 0 0
-0.195374 0.0330644 2.54929 250 249 247
-0.148125 -0.273899 2.5763 150 0 2
-0.148125 -0.273899 2.5763 150 0 2
-0.137918 -0.277521 2.57696 240 233 215
-0.138035 -0.268594 2.57732 131 1 0
-0.138296 -0.242721 2.58915 98 0 1
-0.125208 -0.261286 2.58049 132 0 3
-0.125208 -0.261286 2.58049 132 0 3
-0.122241 -0.257348 2.58214 248 245 252
-0.102578 -0.249478 2.5846 99 1 0
-0.100996 -0.226704 2.59462 107 1 1
-0.0972903 -0.232636 2.59167 99 0 0
-0.104461 -0.174047 2.61597 79 0 0
-0.0980217 -0.222158 2.59606 240 238 241
-0.0908714 -0.239626 2.58802 240 240 240
-0.0861617 -0.195631 2.6074 126 0 1
-0.0772918 -0.191065 2.6098 239 234 240
-0.0728622 -0.207397 2.60018 96 1 0
-0.0717878 -0.215484 2.59625 242 232 243
-0.0726655 -0.207504 2.59972 95 1 1
-0.0726655 -0.207504 2.59972 95 1 1
-0.0674616 -0.23195 2.58927 70 0 2
-0.0663688 -0.215124 2.59706 91 0 0
-0.0656145 -0.20945 2.59924 233 231 236
-0.0611806 -0.216379 2.59694 241 233 244
-0.0611806 -0.216379 2.59694 241 233 244
-0.061055 -0.216513 2.59666 239 225 242
-0.061055 -0.216513 2.59666 239 225 242
-0.0580353 -0.220029 2.59495 236 229 237
-0.0580353 -0.220029 2.59495 236 229 237
-0.0509408 -0.216191 2.5979 233 230 237
-0.0483502 -0.222749 2.59176 84 0 2
-0.0483502 -0.222749 2.59176 84 0 2
-0.0466541 -0.210778 2.59598 89 1 0
-0.0423942 -0.2219 2.59209 250 245 241
-0.0426451 -0.214867 2.59432 239 227 237
-0.0434744 -0.198194 2.60175 231 232 236
-0.0410395 -0.204333 2.59939 232 231 237
-0.0398161 -0.211178 2.5963 240 229 243
-0.0317413 -0.210031 2.59718 80 0 0
-0.0498527 -0.0489952 2.58647 204 175 205
-0.030902 -0.158409 2.62348 231 221 230
-0.0221052 -0.206455 2.59686 233 230 237
-0.0221052 -0.206455 2.59686 233 230 237
-0.0269411 -0.142779 2.629 57 0 0
-0.0269411 -0.142779 2.629 57 0 0
-0.0177352 -0.208196 2.59608 106 0 0
-0.0205537 -0.178239 2.61132 237 223 236
-0.0133173 -0.207094 2.59776 252 254 253
-0.0129435 -0.206867 2.59676 254 255 253
-0.0131521 -0.155533 2.62054 89 0 1
-0.0414378 0.0719537 2.45523 94 0 0
-0.0414378 0.0719537 2.45523 94 0 0
-0.0164018 -0.105269 2.65296 39 1 0
-0.00905688 -0.169017 2.61361 238 222 232
-0.0204114 -0.0523411 2.5872 61 1 3
-0.00438433 -0.155094 2.62176 230 225 232
0.00250809 -0.192843 2.60113 231 225 229
0.00372622 -0.176051 2.6107 219 208 224
0.00372622 -0.176051 2.6107 219 208 224
0.00958388 -0.188319 2.60402 222 218 233
0.0047949 -0.143 2.59647 88 0 0
0.0159314 -0.185383 2.60528 226 220 232
0.0188749 -0.19163 2.60646 254 255 255
0.016907 -0.170435 2.61147 70 0 0
0.00603748 -0.0420794 2.59942 188 173 192
0.00603748 -0.0420794 2.59942 188 173 192
0.0235949 -0.179006 2.6084 238 218 229
0.0257225 -0.162326 2.61468 76 2 3
0.0277588 -0.181026 2.60392 68 0 0
0.0269761 -0.158644 2.61759 228 205 225
0.0269761 -0.158644 2.61759 228 205 225
0.0303997 -0.152582 2.61972 220 206 219
0.0330869 -0.155002 2.61874 221 207 220
0.0235644 -0.0665 2.65571 255 255 253
0.0360393 -0.179658 2.60341 64 0 1
0.0441133 -0.179953 2.60355 255 255 255
0.049293 -0.171903 2.60663 60 0 4
0.0511967 -0.177299 2.60439 245 244 240
0.0510667 -0.165859 2.60986 58 0 3
0.0511009 -0.161155 2.61204 213 206 222
0.038822 -0.0457 2.60461 90 2 1
0.0390225 0.0210781 2.48535 104 0 1
0.0656403 -0.157598 2.60869 53 0 3
0.0430115 0.0144084 2.48576 111 0 0
0.0430115 0.0144084 2.48576 111 0 0
0.0474944 0.0148441 2.48879 246 235 233
0.047357 0.0202133 2.49052 103 0 0
0.0522624 0.0223077 2.49537 94 0 0
0.0801807 -0.142427 2.61875 205 197 212
0.0568074 0.000914497 2.4851 247 252 246
0.0805006 -0.134949 2.62219 71 0 0
0.0796452 -0.12429 2.6286 40 0 0
0.0545252 0.0547305 2.51963 253 248 244
0.088013 -0.148317 2.61647 55 1 0
0.0831047 -0.082167 2.65198 185 156 184
0.0887601 -0.121971 2.62928 202 174 197
0.0594524 0.0952749 2.55173 249 250 245
0.0841822 -0.0617407 2.66597 181 139 185
0.0621344 0.0684976 2.53462 245 244 242
0.0631489 0.0599292 2.5282 118 0 0
0.0685023 0.0115271 2.50247 111 0 0
0.0659862 0.0493482 2.52446 244 243 241
0.0700311 0.0338595 2.51986 104 0 0
0.0700311 0.0338595 2.51986 104 0 0
0.0635573 0.110236 2.56671 250 232 230
0.0731011 0.0075461 2.50383 255 241 238
0.0731011 0.0075461 2.50383 255 241 238
0.0740729 0.000947381 2.50273 103 0 0
0.0962516 -0.12779 2.62637 198 179 198
0.0664475 0.0917435 2.55468 120 0 0
0.0762206 0.0459393 2.53277 106 0 0
0.102415 -0.110841 2.63297 49 1 0
0.106355 -0.143978 2.61306 41 0 0
0.0831993 -0.0018953 2.5039 249 250 245
0.0747734 0.116806 2.58173 255 241 238
0.11033 -0.128052 2.62079 49 0 0
0.113004 -0.115218 2.6293 21 0 0
0.092304 0.0276788 2.53644 103 0 0
0.0842161 0.128194 2.60001 255 240 240
0.0954085 -0.00232955 2.52051 107 2 0
0.120057 -0.131418 2.61858 177 159 175
0.117824 -0.102244 2.63407 192 169 189
0.0986556 0.00431352 2.52573 109 0 0
0.0965963 0.0514316 2.55765 100 0 0
0.0983549 0.0323341 2.54249 249 246 241
0.096736 0.0564541 2.56225 106 0 0
0.121864 -0.116783 2.62745 184 166 188
0.0995541 0.0257947 2.54209 105 1 0
0.124126 -0.127243 2.61948 196 171 193
0.102622 0.0157685 2.53735 114 0 2
0.0975962 0.111146 2.5943 247 247 245
0.129318 -0.11859 2.6245 34 0 0
0.107131 0.023015 2.54206 248 245 240
0.108542 0.0288862 2.55234 247 247 245
0.106603 0.0651724 2.5745 106 1 0
0.112467 -0.000650926 2.5346 108 0 0
0.109135 0.0489794 2.5698 248 245 238
0.130683 -0.0860016 2.64512 49 0 3
0.113717 0.0051526 2.54038 250 251 245
0.107988 0.101098 2.60209 250 249 245
0.108164 0.101062 2.60157 250 249 245
0.120625 0.0434076 2.57412 255 244 244
0.130611 -0.0168543 2.54133 98 0 0
0.127749 0.0638057 2.59775 104 0 1
0.162199 -0.28855 2.43044 166 124 134
0.137852 -0.00892606 2.55369 104 0 0
0.13696 0.0707438 2.61089 101 1 1
0.143906 0.0352291 2.59092 108 0 0
0.143906 0.0352291 2.59092 108 0 0
0.145647 0.029985 2.58907 247 245 248
0.175463 -0.294543 2.41556 65 1 1
0.155472 0.0352756 2.60357 255 238 234
0.163273 -0.000431955 2.58432 255 242 236
0.169789 0.0186184 2.59671 246 244 245
0.186358 -0.125211 2.55177 227 226 231
0.206646 -0.347971 2.42473 225 12 58
0.195949 -0.211935 2.48694 222 221 226
0.179128 0.0403776 2.63225 244 243 241
0.175112 0.100458 2.65878 252 247 244
0.196213 -0.102573 2.57076 227 227 227
0.188948 0.0278856 2.63218 116 0 0
0.190514 0.0219538 2.62205 115 0 0
0.206521 -0.186365 2.5002 94 7 15
0.206521 -0.186365 2.5002 94 7 15
0.201089 -0.0451175 2.57923 255 250 246
0.202171 0.0430131 2.64697 119 1 0
0.214109 -0.0928364 2.57857 222 228 224
0.219994 -0.109725 2.56901 232 228 227
0.211758 0.00489721 2.62397 253 239 236
0.211758 0.00489721 2.62397 253 239 236
0.21979 -0.105728 2.56986 235 233 236
0.21208 0.0762799 2.67658 123 1 0
0.23802 -0.332583 2.43227 212 16 66
0.23802 -0.332583 2.43227 212 16 66
0.225632 -0.118168 2.55848 79 1 1
0.22937 -0.161029 2.52684 118 18 28
0.230638 -0.107241 2.56896 101 1 3
0.230638 -0.107241 2.56896 101 1 3
0.234058 -0.161968 2.52665 231 228 223
0.222486 0.057691 2.66714 186 115 155
0.232053 0.0812771 2.69416 253 253 253
0.24247 -0.125097 2.55487 251 231 233
0.24247 -0.125097 2.55487 251 231 233
0.24254 -0.087086 2.58523 233 231 234
0.24254 -0.087086 2.58523 233 231 234
0.247893 -0.103106 2.57458 240 240 242
0.247893 -0.103106 2.57458 240 240 242
0.239923 0.049112 2.66806 254 245 250
0.239923 0.049112 2.66806 254 245 250
0.248495 -0.115322 2.56211 75 1 0
0.249731 -0.0929997 2.58254 80 2 2
0.268952 -0.348041 2.43712 223 41 102
0.256757 -0.0942288 2.58218 217 192 196
0.258997 -0.110382 2.56965 109 0 0
0.258997 -0.110382 2.56965 109 0 0
0.263455 -0.104034 2.57373 86 2 2
0.26038 0.0443381 2.67291 251 251 251
0.265024 0.0555867 2.68142 66 0 1
0.267257 0.0834212 2.704 112 0 0
0.27917 0.0671729 2.7047 253 253 253
0.295224 -0.321346 2.42965 185 12 68
0.308015 -0.348411 2.44452 238 227 209
0.304765 -0.328521 2.4362 255 255 255
0.291347 0.0721432 2.70507 142 0 1
0.310043 -0.342113 2.44511 255 254 255
0.313827 -0.31932 2.4385 141 25 36
0.309528 0.0620096 2.70529 254 253 251
0.362591 -0.333906 2.45527 123 0 3
-0.137986 -0.267874 2.57391 131 1 0
-0.131606 -0.268543 2.53829 131 1 0
-0.138001 -0.268822 2.57739 126 0 1
-0.194094 -0.203779 2.98894 81 0 0
-0.211782 -0.184316 3.11567 218 188 200
-0.104014 0.102889 3.01974 114 0 0
-0.117348 0.106405 3.09414 252 237 230
-0.120328 0.0851418 3.1025 255 242 239
-0.247193 -0.267805 3.29793 230 220 221
-0.156466 0.075887 3.30534 132 0 4
-0.263473 -0.241632 3.42101 215 206 211
-0.288212 -0.261217 3.5735 211 188 206
-0.189806 -0.0707237 3.44719 106 0 0
-0.340197 -0.0471313 4.31837 253 248 244
-0.425889 -0.0502319 4.80525 255 244 242
-0.494652 0.137774 5.35955 248 247 243
-0.622445 -0.0388719 5.99014 253 237 238
-0.125886 -0.266232 2.62136 201 1 37
-0.0971838 -0.236698 2.61791 176 0 17
-0.0925678 -0.214636 2.62509 253 255 254
-0.0822288 -0.1985 2.62643 251 255 254
-0.0713496 -0.219111 2.61406 255 255 253
-0.0659974 -0.191374 2.62198 165 1 8
-0.0517291 -0.217973 2.60808 255 254 255
-0.048626 -0.171891 2.62436 159 1 2
-0.0430214 -0.200487 2.61236 255 255 255
-0.0275347 -0.195636 2.60932 255 255 255
-0.0156211 -0.19743 2.60407 254 254 255
0.0330427 -0.156371 2.60633 254 254 254
0.0381964 -0.123998 2.61594 101 1 1
0.0506405 -0.160626 2.60036 249 254 255
0.0532184 -0.171089 2.59603 143 0 4
0.0620703 -0.144979 2.60341 245 254 253
0.0648538 -0.155528 2.5971 114 0 0
0.0784244 -0.146509 2.59965 108 0 2
0.0791781 -0.126979 2.60745 103 0 1
0.0915706 -0.142492 2.59803 255 255 255
0.104985 -0.141725 2.5948 95 0 0
0.105966 -0.11715 2.60548 244 244 254
0.118675 -0.130339 2.59789 242 239 250
0.120532 -0.117827 2.60217 244 242 253
0.135954 -0.10799 2.60497 87 1 4
0.201689 -0.0972367 2.57745 95 1 1
-0.139135 -0.267799 2.614 201 1 37
0.109876 -0.131087 2.60419 253 254 255
-0.183734 0.0926234 2.26298 236 235 241
-0.187698 -0.293277 2.61873 158 0 17
-0.182032 -0.266637 2.617 250 223 230
-0.114442 -0.210979 2.61374 254 255 255
-0.089221 -0.207697 2.61099 252 255 255
0.00320484 -0.167223 2.60325 254 254 254
0.0148907 -0.175282 2.60218 105 0 1
0.0190425 -0.153327 2.60321 255 235 237
0.0875191 -0.131277 2.59911 238 227 243
0.163182 -0.111674 2.5975 40 0 1
-0.055926 -0.20789 2.59222 254 255 255
0.0232059 -0.148777 2.59077 89 1 0
0.101568 -0.151307 2.59921 249 237 247
0.256639 0.0237934 2.11828 142 12 22
0.0104118 -0.164072 2.597 80 1 4
0.0900256 0.0178577 2.55091 108 0 0
0.198439 0.0353917 2.65425 91 2 0
-0.0234315 -0.181903 2.58481 255 255 253
-0.0129067 -0.172354 2.57729 140 0 1
-0.0365576 -0.174534 2.58694 79 1 1
-0.0416417 -0.187823 2.58549 56 0 1
-0.0315586 -0.200592 2.58175 225 215 223
-0.14796 0.0422849 2.5557 110 0 3
-0.170399 0.0668779 2.55439 112 0 3
-0.218657 0.114252 2.55261 251 240 238
0.0398299 -0.320546 2.57097 252 220 231
0.0259952 -0.27972 2.57333 153 0 1
-0.000648575 -0.202226 2.57328 164 1 2
-0.0153099 -0.162689 2.5761 254 254 255
0.0186422 -0.261232 2.58029 255 255 255
-0.00968473 -0.181084 2.58402 144 0 0
0.160306 -0.110817 2.54051 39 0 2
0.19179 -0.124189 2.57591 154 104 107
0.189602 -0.103973 2.54433 178 130 142
-0.855101 -0.521573 2.57675 187 161 134
-0.17576 -0.122789 2.81151 217 13 50
-0.0790037 -0.0471653 2.5127 240 222 212
0.0405957 -0.120901 2.54709 37 0 0
0.00471489 -0.0844882 2.55252 225 217 228
0.0108285 -0.0748047 2.56279 145 95 133
0.070799 -0.129793 2.56354 12 0 0
0.0224969 -0.0792723 2.56872 54 0 0
0.0629539 -0.103485 2.56794 77 46 61
0.0933656 -0.14439 2.57136 253 255 252
0.0066398 -0.0622038 2.58295 55 1 1
-0.0486435 -0.0389166 2.6011 97 2 0
0.0801277 -0.0966757 2.58048 8 0 0
0.107906 -0.136855 2.58211 182 158 171
0.0187097 -0.0556552 2.59961 253 243 244
0.106871 -0.122695 2.58774 148 117 132
0.123816 -0.141108 2.58969 250 249 245
0.102133 -0.0998121 2.5941 11 0 0
0.0995949 -0.0882125 2.59344 87 51 63
0.023895 -0.0480635 2.61124 45 0 0
0.136721 -0.138815 2.59726 230 228 229
0.130522 -0.128263 2.59821 24 0 0
0.141064 -0.130681 2.60318 42 0 0
0.122942 -0.0977964 2.60446 132 86 89
0.15116 -0.138433 2.60449 245 249 248
0.161202 -0.136371 2.6108 243 241 242
0.146415 -0.111248 2.61304 152 119 136
0.129513 -0.0750219 2.6129 9 1 0
0.164258 -0.120225 2.61843 178 157 166
0.157577 -0.105312 2.62122 24 0 2
0.183534 -0.133123 2.62244 106 0 0
0.181091 -0.120169 2.62704 181 163 177
0.168497 -0.0959521 2.62925 31 1 1
0.187512 -0.108288 2.63424 26 0 1
0.179981 -0.094904 2.63508 28 0 1
0.208708 -0.101903 2.64606 39 0 1
-0.0805915 -0.280776 2.79269 222 195 188
0.000826064 -0.224875 2.69265 254 254 252
0.012414 -0.215552 2.68471 46 0 2
0.0203053 -0.199798 2.68905 152 109 128
0.0306394 -0.203271 2.66997 197 169 192
0.0408005 -0.180789 2.67578 18 0 0
0.0701934 -0.171598 2.63884 101 28 39
0.0824941 -0.154283 2.63826 16 0 0
0.09035 -0.146617 2.63367 165 130 137
0.0986437 -0.145611 2.62321 170 122 138
0.134069 -0.0963009 2.6168 148 95 115
0.139994 -0.0982681 2.60693 20 0 0
0.141252 -0.114425 2.59102 22 1 0
0.15135 -0.105272 2.5847 33 0 0
0.170182 -0.0896614 2.572 180 140 149
0.174798 -0.0768514 2.57629 28 0 1
0.187038 -0.0647889 2.57033 36 0 0
0.187902 -0.0738555 2.56149 36 0 0
0.19807 -0.0629595 2.55685 29 0 0
0.204524 -0.0902004 2.59013 36 2 1
