# .PCD v0.7 - Point Cloud Data file format
VERSION 0.7
FIELDS x y z normal_x normal_y normal_z curvature
SIZE 4 4 4 4 4 4 4
TYPE F F F F F F F
COUNT 1 1 1 1 1 1 1
WIDTH 597
HEIGHT 1
VIEWPOINT 0 0 0 1 0 0 0
POINTS 597
DATA ascii
0.10197077 -0.063212715 2.142246 0.92713249 0.24103002 -0.28693175 0.052446626
0.094846144 -0.10872985 2.122823 0.93903643 -0.039011713 -0.3415972 0.21494086
0.11534015 0.26207373 2.2205679 -0.89947534 -0.17925087 -0.39851394 0.15505619
0.11509127 0.24196383 2.2218354 -0.89944285 0.26249424 -0.34942719 0.083725542
0.11034441 0.25233114 2.2347238 -0.90389943 0.11573583 -0.41179004 0.095537677
0.077330627 -0.18245721 2.0844214 0.47169545 -0.2206914 -0.85369718 0.10631504
0.089063071 9.581558e-05 2.1415517 0.79474413 0.59981811 -0.092735991 0.10653191
0.10733373 0.24401182 2.2422552 -0.82257539 0.31681484 -0.47222668 0.079285741
0.107163 0.26244107 2.2420397 -0.86036831 -0.27189469 -0.43109122 0.10443673
0.10439195 0.27007243 2.2504582 -0.91585046 -0.15979522 -0.36835217 0.098412961
0.10329123 0.25817898 2.2532427 -0.91115695 0.024568666 -0.4113265 0.15256307
0.09758272 0.062688142 2.2363553 0.81393516 0.48335022 -0.32230747 0.17435405
0.094770789 0.079366975 2.2465994 0.155028 0.9366554 -0.3140749 0.073706716
0.086284935 -0.25323585 2.2157512 0.57896948 0.81493527 0.025980031 0.23085548
0.095413379 -0.019350935 2.255584 0.92171431 -0.31074861 -0.23211628 0.19801843
0.089747451 -0.071503766 2.2307138 -0.95270431 0.025572062 -0.30282098 0.071003735
0.088834696 -0.05276899 2.2307653 -0.94868898 0.034680877 -0.31430298 0.06508556
0.084757656 -0.25943878 2.2279472 0.96877861 -0.23082 -0.090499617 0.16558772
0.08136265 -0.29147387 2.2144513 -0.97837174 0.1548565 -0.1371427 0.14979602
0.095547989 0.25869569 2.2697377 -0.98466337 -0.0033118981 -0.17443362 0.075134531
0.088122435 -0.20356593 2.2468412 -0.95955163 0.044862203 -0.2779355 0.075717911
0.085116863 -0.084607519 2.2314236 -0.85448813 0.40515089 -0.32511961 0.064305007
0.095262587 0.24176136 2.2723625 -0.91215116 0.18706681 -0.36467287 0.10969784
0.078692988 -0.28866583 2.2250652 -0.94934964 0.17091185 -0.26367465 0.15835837
0.081682928 -0.25413659 2.2434528 -0.93112081 0.26712623 -0.24830961 0.10267238
0.082894631 -0.065591425 2.2466898 -0.74578571 0.070352338 -0.66246074 0.074032851
0.089559518 -0.0048843287 2.2781906 -0.81108332 0.13042334 -0.57020491 0.081816725
0.083013043 -0.21766278 2.2582121 -0.93608677 0.32913509 -0.12414376 0.097485118
0.079014868 -0.27130175 2.2431462 -0.83697236 0.22575428 -0.49851003 0.087435707
0.082556225 -0.1872662 2.2599738 -0.77267653 -0.46571395 -0.43137157 0.14088698
0.090574168 0.25834611 2.2863226 -0.95990437 0.20097975 -0.19542445 0.081439734
0.076848082 -0.27755028 2.236366 -0.85662097 0.35248935 -0.37676492 0.12973455
0.086073041 -0.030895477 2.2729437 -0.82622981 0.53772819 -0.1679066 0.033000134
0.081279926 -0.24690814 2.2565081 -0.96765178 0.12660132 -0.21822517 0.09631861
0.074722975 -0.32944 2.2433121 -0.92614704 0.26554203 -0.26784158 0.13705221
0.08829473 0.23472703 2.2944484 -0.95720387 0.11224705 -0.2667608 0.097245194
0.087203793 0.26805368 2.2917302 -0.84270769 -0.41049489 -0.34833562 0.062040403
0.081293419 0.085401975 2.2712929 0.15502745 0.93665528 -0.31407535 0.073706567
0.074351028 -0.14086679 2.2455275 -0.90153092 -0.0096327495 -0.43260729 0.050102901
0.078220524 -0.22499581 2.2670763 -0.98885888 0.14872018 0.0063590347 0.13889968
0.079096258 -0.038699094 2.2697847 -0.71527195 0.61644858 -0.32920676 0.10221783
0.075792544 -0.24586987 2.2645812 -0.8080793 0.21569508 -0.54816371 0.13959776
0.085744962 0.24921173 2.2980356 -0.93743467 0.07785625 -0.33934453 0.096684195
0.07243076 -0.26573941 2.2561851 -0.86297262 0.44422477 -0.2407127 0.1094137
0.073879212 -0.23414242 2.2697771 -0.95072991 0.15628272 -0.26774693 0.12946057
0.073626086 -0.06154152 2.266535 -0.77626634 0.17705137 -0.60503173 0.092340663
0.073197797 -0.21698773 2.2718995 -0.96127057 0.082274802 -0.26303944 0.09653943
0.082606025 0.24877515 2.306747 -0.95810509 0.033425391 -0.28445983 0.094347768
0.074784614 -0.036058176 2.2792425 -0.65054494 0.57096642 -0.50078803 0.090223439
0.069904946 -0.083382487 2.2642927 -0.96234733 0.23040448 -0.14422671 0.091478892
0.069625311 -0.130758 2.2649412 -0.93106771 0.10202326 -0.35029146 0.11230303
0.081236161 0.26636449 2.3073189 -0.8781749 -0.3145757 -0.36034852 0.081927508
0.065098859 -0.34052092 2.2504363 -0.802692 0.44467533 -0.3974286 0.076793462
0.079434238 0.25521243 2.3146996 -0.92654526 -0.090402089 -0.3651593 0.080378778
0.07286717 -0.034219895 2.294126 -0.78519416 0.4405905 -0.43514374 0.13542025
0.078600541 0.26628944 2.3174427 -0.89901555 -0.27430305 -0.34136328 0.11231763
0.064070515 -0.11790858 2.270391 -0.91099638 -0.24900605 -0.3287577 0.098300062
0.064216509 -0.092471398 2.2709112 -0.90269828 0.31240365 -0.29587114 0.17565009
0.063772723 -0.078571267 2.2706935 -0.71388549 -0.29061449 -0.63711125 0.13850977
0.076338448 0.24992007 2.3230703 -0.9348951 0.27170831 -0.22835438 0.10865333
0.061100435 -0.1024239 2.2738833 -0.96511716 0.062672965 -0.25420654 0.11898773
0.060087085 -0.28906521 2.2767236 -0.83819371 0.35307553 -0.41565484 0.085269578
0.066028327 -0.038003594 2.3006802 -0.73725897 0.46025154 -0.49458846 0.15540531
0.07446672 0.26106918 2.3305602 -0.88923997 -0.20365761 -0.40960452 0.095864624
0.066715173 -0.022460323 2.3048463 -0.75391322 0.27932629 -0.59463567 0.17152299
0.05868933 -0.13910325 2.2771943 -0.85251701 0.2730369 -0.44571918 0.14872253
0.058929928 -0.12363042 2.2823451 -0.6279698 -0.16807713 -0.75987107 0.12517999
0.072921917 0.23621115 2.3350339 -0.94612932 0.25378096 -0.20108368 0.094030097
0.053673316 -0.30822814 2.2709687 -0.7075758 0.45019677 -0.54466456 0.104796
0.054487247 -0.28236532 2.2826834 -0.59316534 0.5465222 -0.59115851 0.10859481
0.054303203 -0.16443771 2.2805901 -0.82441759 0.24935661 -0.50809139 0.15408216
0.054821067 -0.14951427 2.2827361 -0.97724372 0.17501867 -0.11984638 0.12354781
0.043697719 -0.38820273 2.2408659 0.45395339 0.52160865 -0.72239232 0.14270893
0.0540624 -0.2526907 2.2823119 -0.71426111 0.37735739 -0.58943403 0.12049904
0.045005292 -0.35804179 2.2541666 -0.6464256 0.49664417 -0.57920504 0.16948684
0.044351857 -0.37133527 2.2519784 -0.96734118 -0.15176387 -0.20302409 0.18824533
0.068837442 0.23527163 2.345331 0.19714008 -0.97698367 -0.081478715 0.12181808
0.050449237 -0.084514678 2.2788112 -0.28945199 -0.27173162 -0.91781229 0.14678031
0.055211328 -0.013636677 2.3021841 0.52501833 -0.84628737 -0.09029603 0.11942289
0.049241375 -0.10554487 2.2799697 -0.25639477 0.043164473 -0.96560788 0.15846549
0.056066062 -0.033121526 2.3123963 -0.65301383 0.41937685 -0.63063139 0.12774952
0.051829807 -0.052418724 2.3016596 -0.55204225 0.58316016 -0.59596437 0.16391116
0.036539875 -0.38067666 2.2473764 -0.9081614 0.28937444 -0.30249864 0.19457769
0.066034913 0.27083701 2.356185 -0.53181255 -0.84536314 -0.050363675 0.084123999
0.047844604 -0.06232268 2.2893872 -0.77874637 0.22305851 -0.58634377 0.12849136
0.046221901 -0.13840814 2.2845409 -0.5939551 0.15330206 -0.78975683 0.15373574
0.045835286 -0.11858191 2.2835164 -0.58993286 -0.10158996 -0.80103606 0.15968461
0.064352244 0.23583257 2.3589323 0.065314934 0.98539889 -0.15723553 0.095712714
0.028648263 -0.39321604 2.2314756 0.043397449 0.67774373 -0.73401642 0.14761184
0.041841142 -0.084055521 2.2870996 -0.7005012 0.14983329 -0.69774491 0.18047933
0.062227882 0.26814115 2.365766 -0.36245191 -0.90297532 -0.2307902 0.21690652
0.040669642 -0.29559895 2.2919681 -0.59548259 0.4951489 -0.63263583 0.076608136
0.034394886 -0.32889211 2.2693744 -0.88283002 0.41738877 -0.21540157 0.079964116
0.042266697 -0.25122356 2.3015425 -0.71817935 -0.14246488 -0.68111825 0.098896787
0.044103861 -0.059976537 2.3051133 -0.80235058 0.52853441 -0.27728128 0.094471402
0.048095416 -0.024745129 2.3229034 -0.71995467 0.67240536 -0.1718614 0.049338423
0.038182877 -0.095981047 2.2900152 -0.75763577 -0.19940729 -0.6214698 0.19590338
0.034199342 -0.3177304 2.2794349 -0.59666532 0.38608438 -0.70351213 0.11006068
0.029852772 -0.3391116 2.2707083 -0.94228816 -0.023535583 -0.3339746 0.13055664
0.05834762 0.26028803 2.3763819 -0.51309037 -0.11249686 -0.85093051 0.19803181
0.058780026 0.27100906 2.3779502 -0.20005071 -0.77372849 -0.60110235 0.22650099
0.035844814 -0.23666629 2.2987242 0.59858543 0.10450647 -0.79421276 0.11059245
0.03204596 -0.36947301 2.2871242 -0.51097542 -0.081045158 -0.85576618 0.21651974
0.057387173 0.25006935 2.3770108 0.0029456827 0.18619038 -0.98250932 0.17856017
0.035242938 -0.27270982 2.2995567 -0.74635434 0.16386105 -0.64506185 0.13032512
0.056823757 0.23806436 2.377429 -0.36808777 0.7344113 -0.57022053 0.14515153
0.033681996 -0.10586017 2.2994244 -0.67239308 0.1196698 -0.73045653 0.11338995
0.030381411 -0.25662467 2.2957814 0.60560805 0.020904191 -0.79548842 0.12799256
0.029079592 -0.28657493 2.2942736 0.12715323 0.43972665 -0.88908529 0.18072441
0.030858034 -0.24643828 2.3014777 0.59858549 0.10450654 -0.79421264 0.11059242
0.036057681 -0.058556393 2.3272831 -0.81033802 0.46384141 -0.35805503 0.071257912
0.0096949833 -0.40597498 2.2313309 -0.46139473 0.48642406 -0.74196124 0.1080316
0.022580674 -0.37464887 2.2883503 -0.24277958 0.098281972 -0.96509004 0.20982021
0.047781385 0.26121044 2.3745377 0.40794069 0.021113276 -0.91276431 0.25165111
0.025522256 -0.13424148 2.2983603 -0.38610849 0.1742219 -0.90585154 0.13260511
0.034257904 -0.048325475 2.3317318 -0.70291668 -0.02359285 -0.71088076 0.11206721
0.046218239 0.27139097 2.3731875 0.016682297 -0.63063204 -0.77590275 0.16274679
0.024181051 -0.23076256 2.2993391 0.69401067 0.40644991 -0.59426224 0.11055525
0.026246386 -0.087825149 2.3064406 -0.79469234 0.22218509 -0.56488752 0.1421853
0.044833668 0.23940217 2.3738964 -0.32258385 0.94059682 -0.10591125 0.098614931
0.020345829 -0.19953583 2.3066196 0.10582525 0.34234565 -0.93359548 0.11400683
0.017336801 -0.12289357 2.2990272 -0.57977027 0.39356938 -0.71342105 0.148753
-0.0019228775 -0.40538517 2.2363501 -0.17194968 0.51033646 -0.84260911 0.12331084
0.0099060554 -0.37788808 2.287287 0.07974685 -0.044475626 -0.99582249 0.19079785
0.024324894 -0.060627807 2.3390195 -0.67577243 0.57005697 -0.4672972 0.10237077
0.012292416 -0.13097991 2.303643 -0.15882044 -0.16464059 -0.9734832 0.1876111
0.030658875 0.23721622 2.3686831 -0.023093527 -0.97116578 -0.23728408 0.094934575
0.0068629025 -0.32642716 2.2969339 -0.73602915 0.14473288 -0.66129678 0.12807563
0.0042341426 -0.34005561 2.2914655 -0.47085866 0.25296229 -0.845164 0.18829276
0.0068394169 -0.20517652 2.3037229 0.25207102 0.42489058 -0.86944133 0.10138637
0.018142821 -0.067826599 2.3444283 -0.88605219 0.1787131 -0.42775357 0.11361673
0.0067871017 -0.17761549 2.3070257 0.15023001 0.064243071 -0.9865616 0.077201284
-0.024657665 -0.24688102 2.1938577 0.43659052 0.89959359 0.010956809 0.096195161
0.022437181 0.26113716 2.3660872 0.53245747 -0.28633097 -0.79655731 0.17981461
0.0034139056 -0.14021844 2.3043795 -0.259166 0.39138761 -0.88297719 0.20550561
0.012726076 -0.048703078 2.3411803 -0.43501961 -0.76133263 -0.48076034 0.13067853
-0.00094760169 -0.332762 2.2982066 -0.47559446 0.26084825 -0.84010005 0.21319234
0.0017201396 -0.18741822 2.3105493 0.14065547 0.31419164 -0.93888211 0.068096839
0.011066659 -0.082949728 2.3512673 -0.757384 0.4539994 -0.46931225 0.13246261
0.011336752 -0.064453743 2.3525732 -0.68347514 -0.12742454 -0.71876609 0.12742363
0.016079176 0.25127119 2.3644691 0.83259559 -0.19371343 -0.51890248 0.13020819
0.01533725 0.23723538 2.3644431 0.33000091 -0.38591143 -0.86149395 0.11873821
-0.076176696 0.19095993 2.0219038 0.32993305 0.77643669 -0.53692669 0.07100042
-0.0054317433 -0.30791882 2.3028212 -0.18799043 0.21679498 -0.95794547 0.16571617
-0.00434914 -0.28937641 2.3092275 -0.76952022 -0.040811617 -0.63731706 0.13449253
0.012455336 0.27131951 2.3622115 0.022714294 -0.75152481 -0.65931374 0.097025894
-0.0088592265 -0.33933792 2.2989225 0.076703027 0.40201339 -0.91241539 0.11898138
0.0045473813 -0.070466928 2.3587046 -0.63471973 -0.15690567 -0.7566449 0.16173996
-0.012092608 -0.18813096 2.3067288 0.11172009 0.30221987 -0.9466688 0.055713937
-0.014360095 -0.31220552 2.3037117 -0.25151321 0.38421214 -0.88832545 0.11829422
0.0015096882 -0.057669643 2.3568022 -0.58260399 -0.36908326 -0.7241202 0.17684093
0.0010867824 -0.080138706 2.3589866 -0.73606312 0.11993118 -0.66620392 0.16103956
-0.012833076 -0.28344682 2.3130009 -0.56469715 0.16762789 -0.80809534 0.12660052
0.0028184871 0.038718186 2.3790016 -0.85231698 0.32114479 -0.4128218 0.12979166
-0.011442143 0.15577395 2.3257596 0.79856437 -0.60102606 -0.032598473 0.19209671
-0.019745244 -0.1754683 2.3056474 0.20656225 0.15221786 -0.96652043 0.086344004
-0.017697379 -0.27453321 2.316201 -0.34693193 -0.17551023 -0.92132205 0.15315416
-0.0046147453 -0.099214301 2.3619821 -0.67042285 0.50079268 -0.54748499 0.12861916
-0.0048763403 -0.071203195 2.3649392 -0.78512383 0.16675541 -0.59646744 0.10020692
-0.020752892 -0.29902652 2.3123169 -0.22735339 0.40842247 -0.88402569 0.1307943
-0.014814185 0.1620792 2.3328948 -0.94052142 0.31713548 -0.12183817 0.10712253
-0.045982607 -0.38751206 2.2378869 0.35371101 0.52061462 -0.7770772 0.082579188
-0.023943426 -0.28715181 2.3156981 0.066956632 0.1650674 -0.98400688 0.12296002
-0.0055110478 0.043211084 2.3767838 -0.024839064 -0.37696281 -0.92589521 0.062110726
-0.0088594882 -0.080566369 2.3682075 -0.51134074 0.75621241 -0.40825656 0.14872792
-0.0044730059 0.032357454 2.3869505 -0.12853754 -0.11840477 -0.9846108 0.14057064
-0.019144779 0.19298331 2.330173 -0.97333622 -0.18264456 -0.13877167 0.18559429
-0.026571797 -0.26636502 2.320066 -0.46098939 -0.42279795 -0.78021193 0.13032176
-0.033155221 -0.31433874 2.3005486 0.15393724 0.47309455 -0.86745888 0.12771082
-0.016259421 -0.075170383 2.3753974 -0.56111336 0.36359963 -0.74360412 0.17203751
-0.017016694 -0.085712045 2.3753731 -0.14626853 0.899876 -0.41088766 0.18123224
-0.036643449 -0.24476156 2.3159149 -0.15784036 -0.17853117 -0.97119153 0.22784847
-0.038516901 -0.15496404 2.3071265 -0.58474565 -0.80058712 -0.13089159 0.089315146
-0.014748661 0.019043138 2.3887968 0.2754961 -0.064618379 -0.95912796 0.15660983
-0.022425186 -0.11221506 2.3695314 -0.702214 0.40417179 -0.58612335 0.10967764
-0.016248748 0.029555565 2.3883069 0.01165904 -0.13294183 -0.99105519 0.13451378
-0.029310955 0.23171301 2.3401625 -0.22755343 -0.80618167 -0.5461598 0.12891474
-0.027733197 0.26974267 2.3488314 0.33437052 0.0063458458 -0.94242036 0.052593812
-0.051615886 -0.33480829 2.2889431 -0.0026946617 0.33800375 -0.94114095 0.0966326
-0.021029759 -0.0055524772 2.3896391 0.54580951 -0.061870996 -0.83562195 0.072508819
-0.021100864 0.0075354842 2.3902838 0.52858716 -0.48214078 -0.69866723 0.14636934
-0.024313603 -0.029614676 2.3804021 0.92376482 -0.11838647 -0.3642022 0.070365705
-0.023958994 -0.076144949 2.3841915 -0.53311837 0.024977764 -0.84567189 0.15175487
-0.047181439 -0.21947575 2.3066783 0.55572683 -0.069399916 -0.82846326 0.14621688
-0.030238923 0.086755373 2.3643501 0.51016247 -0.033022482 -0.85944384 0.085905537
-0.026400296 -0.05205575 2.3843198 -0.89583129 0.059960123 -0.44033059 0.10931006
-0.054917052 -0.31037185 2.2939835 0.22767283 0.5286988 -0.81770575 0.086120479
-0.035600811 0.12215428 2.3513443 0.3946256 -0.32538712 -0.85929841 0.13778257
-0.026865823 0.029081751 2.3849461 0.18866862 -0.022421457 -0.98178476 0.14077465
-0.026158156 -0.030388357 2.3902149 0.91400272 -0.19695228 -0.35469535 0.063448623
-0.051291212 -0.15045947 2.3075476 0.62267286 0.50970769 -0.59369737 0.14630672
-0.026967239 0.015204673 2.3882685 -0.25107241 -0.22718069 -0.94093126 0.15990198
-0.035191204 0.096927956 2.3612535 0.071707636 -0.36676547 -0.92754573 0.12837721
-0.029157177 -0.041224882 2.3916368 -0.82795227 -0.076171108 -0.55560148 0.12809408
-0.032589994 0.043027584 2.3792868 0.40941557 -0.11789692 -0.90469837 0.11692004
-0.033674411 -0.11072087 2.3793569 -0.48304141 0.53226537 -0.69524425 0.106257
-0.042388283 0.13682963 2.3436375 0.26876846 -0.53312033 -0.80221325 0.14916985
-0.033802442 0.056209184 2.3756561 0.16169026 -0.22897886 -0.95990884 0.075514823
-0.057881609 -0.1952315 2.2989051 0.71704906 0.1672118 -0.67666894 0.13868208
-0.059793767 -0.26317781 2.2952816 0.64057279 0.29815984 -0.70764911 0.088578388
-0.029998783 -0.056217156 2.3932092 -0.82186204 -0.1013916 -0.56059128 0.1023621
-0.04230744 0.10401766 2.3572125 0.23053384 -0.47403315 -0.84979218 0.11752669
-0.034422502 -0.090889268 2.3897467 -0.72176582 0.35514614 -0.59407514 0.15076831
-0.065959044 -0.32917643 2.2882912 0.24334243 -0.044150684 -0.96893501 0.19436114
-0.048543647 0.23133725 2.3378294 -0.0092743319 0.46577761 -0.88485324 0.056448728
-0.043086372 0.067207761 2.3698583 0.075272098 -0.57042497 -0.81789333 0.16729759
-0.070405625 -0.30399388 2.2948785 0.15544115 0.87154979 -0.46501502 0.051980693
-0.070026286 -0.19692764 2.2984812 0.21408662 -0.38077146 -0.89954436 0.1633727
-0.046170767 0.046517685 2.3763092 0.23376535 -0.10691447 -0.96639699 0.095614552
-0.040062062 -0.056379084 2.4001009 -0.82922566 0.38539535 -0.4047904 0.082998455
-0.044810604 -0.10766989 2.3860557 -0.55964047 0.5120886 -0.65158868 0.15464239
-0.043267675 -0.095481627 2.3949385 -0.71000165 0.28641516 -0.64332265 0.11686385
-0.057338938 0.12229265 2.3466849 0.075460359 -0.39321515 -0.9163447 0.13997042
-0.076814435 -0.33511746 2.2924411 0.031101709 0.31276134 -0.94932246 0.21201524
-0.047073763 0.014924587 2.3853104 0.068213627 -0.078615882 -0.99456847 0.098552667
-0.056146532 0.087977707 2.3602407 0.21499473 -0.04050171 -0.975775 0.096684724
-0.052537262 0.0023411941 2.3855443 0.11505138 0.10557461 -0.98773342 0.082897715
-0.06563437 0.21434982 2.341867 -0.34152445 0.16833849 -0.92467469 0.137343
-0.05591106 0.01326416 2.3821104 0.38526732 -0.10233185 -0.91711354 0.051010165
-0.060252499 0.052581578 2.3696296 0.24907362 -0.33789521 -0.90762824 0.082634553
-0.065234035 0.090994842 2.355808 0.18843576 -0.08992891 -0.97795945 0.072819799
-0.063538998 0.067885295 2.3634038 0.36210242 -0.4252488 -0.82948494 0.067705363
-0.052070521 -0.08037369 2.4086006 -0.70389032 0.43313017 -0.56297123 0.14945495
-0.053380735 -0.091683678 2.4054689 -0.71087319 0.34764391 -0.61139435 0.16303252
-0.088585891 -0.26156181 2.2958894 -0.26786664 -0.38015124 -0.88528669 0.14603996
-0.057115324 -0.10556938 2.3957689 -0.26497981 0.55811924 -0.7863133 0.08530876
-0.074634619 0.23899305 2.3322303 0.5386104 0.31941515 -0.77966195 0.11466537
-0.064584792 0.042682346 2.3712804 0.36769292 -0.35731667 -0.8585608 0.048810065
-0.090673178 -0.27323645 2.2950535 -0.66465944 -0.14701514 -0.73253965 0.16787736
-0.094313018 -0.29506958 2.2951312 -0.21364187 0.14362296 -0.96629691 0.19170669
-0.096943334 -0.31957853 2.2894831 -0.1794486 0.11677044 -0.9768126 0.15079488
-0.057512332 -0.072067454 2.4154501 -0.49148142 0.1432732 -0.85902196 0.1021981
-0.070510037 0.027659107 2.372776 0.41452107 -0.13176107 -0.90045059 0.10009725
-0.071655847 0.0057999636 2.3774302 0.38798282 -0.17463914 -0.90496993 0.072509937
-0.060664725 -0.085404329 2.4158819 -0.235586 0.56094992 -0.79362112 0.1678482
-0.08868859 0.22905959 2.3184981 0.65761566 -0.55399275 -0.51052284 0.14609091
-0.069766551 -0.038570415 2.3899479 -0.49729982 -0.040982272 -0.86661023 0.11111831
-0.099491566 -0.28883711 2.3028443 -0.61084992 0.032297429 -0.79108745 0.091178082
-0.07391645 -0.014329531 2.3802698 -0.095209241 -0.60152239 -0.79316211 0.16094899
-0.087659046 0.25348005 2.3298812 0.38304913 0.14777593 -0.91183096 0.11873765
-0.10914408 -0.31367937 2.2968664 -0.15881091 0.41382477 -0.89639735 0.21358395
-0.071801499 -0.087288596 2.4107468 -0.30228528 0.50143689 -0.81066918 0.16409262
-0.069681466 -0.081405804 2.4178226 -0.28291592 0.690557 -0.66564983 0.1334213
-0.099274062 0.21491085 2.319159 0.50001836 -0.64490092 -0.57800043 0.10069359
-0.10869219 -0.30115491 2.3067214 -0.44583645 0.49472374 -0.74597466 0.1163461
-0.10192171 0.20220414 2.31846 0.62998933 -0.38765842 -0.6729297 0.070394665
-0.11317531 -0.32288089 2.2964749 -0.12417208 0.32265928 -0.93833488 0.14728992
-0.079298593 -0.099584512 2.4117808 -0.050398905 0.86642849 -0.49675089 0.1387267
-0.1003885 0.060024031 2.3466938 0.60512257 -0.18402174 -0.77457249 0.15650848
-0.1012182 0.049074214 2.3495414 -0.29574624 -0.41031361 -0.86265683 0.12526287
-0.098954409 0.01298579 2.3612807 0.28604627 -0.055625733 -0.95659983 0.083353586
-0.11637979 -0.28968155 2.3153794 -0.35756555 0.11314519 -0.92700869 0.14016449
-0.084100232 -0.09092097 2.414973 -0.03534583 0.19238676 -0.98068237 0.11049458
-0.09470962 -0.097810574 2.4099059 0.47360623 0.71633554 -0.51240659 0.15835524
-0.12902133 -0.29688686 2.3180506 -0.018003177 0.34883463 -0.93701136 0.13837868
-0.13656643 -0.29090324 2.3143237 0.16148962 -0.51108015 -0.84422642 0.19802512
-0.25281075 0.27146801 2.2270932 -0.95311326 -0.0098419152 -0.30245358 0.15255797
-0.1097135 0.2498295 2.4985116 -0.29311147 -0.95577824 -0.023950692 0.10086491
0.01142607 0.24775447 2.3541617 0.74511224 -0.5918256 -0.30749023 0.14881623
0.055838991 -0.3454752 2.2355249 -0.61266935 0.79031277 -0.0064744023 0.14118461
-0.0072847344 -0.077244163 2.3544924 -0.70547825 0.52182019 -0.47958744 0.17165507
-0.047279313 0.23205927 2.3340099 -0.0092743412 0.46577767 -0.88485318 0.056448732
-0.065028571 -0.076005273 2.4074852 -0.30747768 0.69906092 -0.64557821 0.15575726
-0.073323026 0.041820724 2.359283 0.63418972 -0.63974535 -0.43419975 0.12919728
-0.10304105 -0.26537848 2.2848632 -0.87188774 0.48644996 -0.056375872 0.21258818
0.052598484 0.24626406 2.3648016 0.39100686 -0.35750577 -0.84811753 0.22123854
0.050086923 -0.14228319 2.2620759 -0.36338648 0.58587104 -0.72436547 0.30247641
0.041435432 0.2593292 2.3615272 0.34370768 0.89259636 -0.29178199 0.18592359
0.019461153 -0.061415371 2.3249736 0.39803556 -0.72026044 -0.56814837 0.16446233
0.020089207 -0.1356554 2.282594 -0.23066962 0.93305069 -0.27605793 0.23082013
0.017962212 0.26258895 2.3532197 -0.33017135 -0.060223818 -0.94199789 0.17029761
-0.00046364838 -0.071366005 2.3449185 -0.86526859 -0.12416712 -0.48568791 0.20040779
-0.0020542932 -0.14166957 2.2888677 -0.75948715 0.6236124 -0.18516715 0.21465929
-0.010774659 -0.19154726 2.2939675 0.17326421 0.58723015 -0.79065818 0.10829391
-0.014505504 -0.27079296 2.2977495 0.85245931 0.16343805 -0.49658945 0.12817092
-0.017794691 -0.29100445 2.2962167 0.26299262 0.59412879 -0.76016176 0.20349166
-0.019316254 0.018834487 2.3765004 -0.59157151 0.54686683 -0.59243548 0.2245405
-0.026165025 -0.30281955 2.2964063 0.24364874 -0.14181359 -0.95943952 0.19312578
-0.026384993 -0.26880994 2.3027856 -0.058549091 0.98360729 -0.17055421 0.20117702
-0.027313679 0.008539943 2.3781095 -0.073664144 -0.5795095 -0.81162941 0.17270447
-0.033660904 0.032597825 2.3709211 0.63830173 -0.067361236 -0.76683336 0.14366561
-0.035713572 -0.077521347 2.3768461 -0.049785629 -0.54204869 -0.838871 0.20496716
-0.035822306 0.013963764 2.3744061 0.0576628 -0.069828637 -0.99589097 0.18205179
-0.041219741 -0.05623538 2.3875673 0.6984089 -0.7141009 -0.04780113 0.18319377
-0.041845761 0.046391286 2.3662186 -0.10496468 -0.26522651 -0.95845562 0.27187261
-0.04438154 -0.15661262 2.2912433 0.72849447 0.68480241 0.018475506 0.14289457
-0.0517339 -0.1124111 2.3724813 -0.32058454 0.77425641 -0.54566705 0.14618322
-0.056409366 -0.0068172934 2.3749676 -0.83016151 0.50092351 -0.24476022 0.1038534
-0.077068873 0.0054157544 2.3636615 0.85916948 -0.1775264 -0.47990841 0.10872301
0.14880751 0.025463846 1.963142 -0.87422436 0.4849067 0.024436431 0.091987953
0.089835368 -0.11964969 2.0891449 -0.17177047 0.91710299 -0.35974565 0.24783529
0.096225053 0.26800174 2.2371302 -0.14206174 -0.98566943 -0.090962835 0.14236939
0.081395753 0.27280745 2.2741985 -0.25201651 -0.96755117 0.018235635 0.1186375
0.081221685 0.25042704 2.2752433 -0.98912704 0.082455598 -0.12177279 0.2026391
0.071744584 -0.053626616 2.2429454 0.63904929 0.21622044 -0.73814952 0.21915461
0.057720199 -0.093796313 2.2523384 0.89093179 -0.26402199 -0.36950359 0.22149217
0.05730027 -0.079729706 2.2522426 0.35689437 0.20029028 -0.91241997 0.24439676
0.060405761 -0.023109991 2.2872212 0.57199287 0.67077559 -0.47210619 0.17067239
0.046837445 -0.3056576 2.2591786 -0.73096836 0.36397067 -0.57724392 0.099587455
0.046696637 -0.035815846 2.2994859 -0.059683967 0.9953869 -0.075118691 0.1658536
0.052288778 0.26206312 2.3607166 0.14053181 0.64846718 -0.74815851 0.24298403
0.032107841 -0.36247692 2.235301 -0.96050566 0.017761782 -0.277693 0.22109938
0.030146508 -0.081314005 2.2725425 0.69200969 0.71077478 -0.12618186 0.26364753
0.009328411 -0.20111272 2.2877896 0.67970318 0.42341173 -0.59893745 0.20022754
0.0054934677 -0.049905337 2.3237371 0.35940453 -0.92976129 -0.079827473 0.15473871
0.0042729215 -0.084067479 2.3342643 0.564179 -0.82455921 -0.04247427 0.1257631
0.0025756848 0.23830537 2.3467801 -0.47919622 0.78458196 -0.39344898 0.11244655
-0.0055463407 -0.05859277 2.3394992 0.55437607 -0.81087852 -0.18746525 0.091064043
-0.004954298 0.2739597 2.3418605 0.03643211 -0.99114043 -0.12772414 0.018285608
-0.011537088 -0.10053628 2.3449883 -0.94251662 0.333839 -0.014628016 0.11468716
-0.021550225 -0.31555066 2.2853475 -0.32363802 0.46164718 -0.82591778 0.15684806
-0.018899612 -0.093744345 2.3531764 -0.094715066 0.34779483 -0.93277431 0.14330396
-0.026378527 0.1942808 2.312562 0.80595696 -0.070476942 -0.58776385 0.10414323
-0.02321282 -0.076312825 2.358674 0.054290261 0.99840212 0.015676089 0.22080763
-0.023805374 -0.086849876 2.3590565 -0.49241555 0.70182556 -0.51475024 0.17071939
-0.032335117 -0.084534965 2.3676658 0.18793228 -0.94420016 -0.27049488 0.21734425
-0.037324786 0.087087832 2.3477073 0.019729316 -0.41603389 -0.9091351 0.24286309
-0.037494488 0.063355967 2.359827 -0.024334714 -0.49940798 -0.86602509 0.16754419
-0.041634623 -0.092139527 2.3729384 0.15585087 -0.25813997 -0.95345384 0.23700705
-0.062542059 -0.31375337 2.2752523 0.23851204 0.45725501 -0.85675544 0.10241503
-0.048940286 -0.088097684 2.381449 -0.70180166 -0.14701524 -0.69703728 0.14392065
-0.059137251 0.080861948 2.3468289 0.12876956 0.1190836 -0.98449862 0.078427516
-0.073710158 -0.33253404 2.2704217 -0.8741461 0.45553601 -0.16839115 0.24356684
-0.059280612 -0.081492327 2.3924754 -0.81710517 -0.47937262 -0.3202205 0.13646661
-0.077861741 -0.19923504 2.2796988 -0.2008667 -0.68525529 -0.70005542 0.21630873
-0.071041666 0.068057239 2.3463237 0.309569 -0.4513301 -0.83693969 0.09048517
-0.068052605 -0.086620793 2.39937 -0.49843103 0.52437043 -0.69036382 0.1322732
-0.095477134 0.2553252 2.312027 0.60225761 0.55833173 -0.5705713 0.10083076
-0.12840331 -0.2953589 2.297225 -0.42790684 0.83341575 -0.34973392 0.254264
-0.14654323 -0.30474019 2.297003 0.43699875 0.86478639 -0.24733892 0.15268341
0.20447594 0.11476531 2.0499718 0.33411282 -0.39532661 -0.85561991 0.11196522
0.18100491 0.064341478 2.0750604 -0.34388912 0.59145743 -0.72932726 0.18710169
0.1793038 0.11077964 2.0765319 -0.84221101 0.069033876 -0.53471017 0.096280806
0.15222193 0.025479477 1.9710885 0.80687237 -0.55520427 -0.2017556 0.069079965
0.16903707 0.079242341 2.0819573 -0.46589011 -0.095431998 -0.87968123 0.23627837
0.16551146 0.062099647 2.0787797 0.72228521 0.64177471 -0.25773889 0.17247534
0.14737099 0.027265135 1.9804113 0.67945421 -0.71312481 -0.17261238 0.051428273
0.13485797 -0.024852334 1.9992244 -0.50117558 0.86334866 -0.058754418 0.146167
0.13618344 0.20876639 2.1199338 -0.051422708 0.91450953 -0.40128285 0.1905511
0.1185912 -0.059995826 2.0316243 0.070237949 0.9222759 -0.38009694 0.22014222
0.1278463 0.21485204 2.1243734 -0.69348425 0.46829629 -0.54751998 0.16356748
0.10121936 -0.10393739 2.100328 -0.79668695 -0.35990974 -0.48554593 0.20004559
0.099191941 -0.11515288 2.096617 -0.97392297 0.009700234 -0.22667132 0.24778925
0.088433489 -0.095794939 2.126941 0.75275356 -0.21215129 -0.62318057 0.1554997
0.088322155 0.23392098 2.2729805 -0.89417666 0.13897653 -0.42559808 0.12957035
0.07559327 -0.053224057 2.2501519 -0.97959036 -0.095920078 -0.17664105 0.094196811
0.064278945 -0.27783269 2.2435033 -0.80298197 0.48893699 -0.34082344 0.19461033
0.067241721 -0.071070142 2.2570281 -0.76473576 0.17254582 -0.6208117 0.17063203
0.066086099 0.26513079 2.3388565 -0.85227787 0.33612341 -0.40080354 0.17708483
0.044940542 -0.28854546 2.2710192 -0.58898151 0.5078696 -0.62862492 0.083451062
0.022397054 -0.40225238 2.2179611 -0.47323409 0.72326469 -0.50292915 0.15656538
-0.01106587 -0.41121191 2.2234986 0.058894891 0.89611816 -0.43989041 0.10846898
0.0011909936 -0.21199495 2.2893996 0.4372561 0.38942209 -0.81065255 0.12900601
-0.0020382556 -0.15400249 2.2907333 0.85326886 -0.33758545 -0.39745224 0.18467197
-0.0044691702 -0.29562479 2.2932503 0.089642636 0.5154255 -0.85223275 0.17318963
-0.0067997305 -0.19575967 2.296901 0.19952397 0.60431039 -0.77136189 0.11842693
-0.076634206 0.20799954 2.0301974 0.48096058 0.19662198 -0.85441017 0.15318325
-0.00074974092 0.27305928 2.3487968 -0.0076201605 -0.92567605 -0.3782405 0.03649861
-0.043825235 -0.40162665 2.2231843 0.81598437 0.027595073 -0.57741505 0.20227702
-0.027148994 0.22375405 2.3239744 0.52839446 0.84529591 -0.079209939 0.14786719
-0.029914657 -0.085418306 2.373148 -0.57084912 0.61825943 -0.54026538 0.15990347
-0.047968216 0.18114826 2.3172154 -0.62037188 0.14168395 -0.77140421 0.15482412
-0.062435661 -0.21410289 2.2899711 -0.731637 -0.54771638 -0.40584984 0.12683997
-0.037083037 0.022504605 2.3747139 0.57492018 -0.41072866 -0.70765018 0.16821891
-0.040079534 -0.099448025 2.375803 -0.63039714 0.2959345 -0.71765059 0.14461932
-0.077572115 -0.34452194 2.2721353 -0.38449523 -0.11161266 -0.91635478 0.13731988
-0.078617238 -0.3025184 2.281533 0.33330908 0.83451802 -0.43873087 0.1101149
-0.087809168 -0.33084965 2.2713501 -0.25779942 -0.02853873 -0.96577692 0.14414327
-0.089232996 -0.34891346 2.2726834 0.40005526 0.59981447 -0.69294906 0.17781328
-0.071825869 0.27340007 2.3254063 0.23911339 0.32885912 -0.91360635 0.095072366
-0.071143478 0.059733279 2.3546081 0.27060923 -0.25124955 -0.92932469 0.10761748
-0.10082155 -0.33186316 2.2722683 0.30283508 0.55335981 -0.7759406 0.22802027
-0.072093673 0.049561586 2.3572202 0.4474223 -0.17698909 -0.87663454 0.063248239
-0.10359399 0.27450994 2.3148899 0.35066688 0.17519158 -0.91996777 0.11113195
-0.12335969 -0.32018363 2.2888117 0.66464448 -0.19057208 -0.72244722 0.18307054
-0.12080509 -0.29591429 2.3023648 -0.78491956 0.55383319 -0.27779484 0.1503979
-0.11558572 0.27011919 2.3108981 0.24306136 0.47289851 -0.84692866 0.066070609
-0.12542941 -0.30506352 2.2984505 -0.62571305 0.36144403 -0.69126076 0.14194663
-0.14171635 -0.30339837 2.3042254 0.047252905 0.90293336 -0.42717493 0.16338047
-0.16785686 0.20387837 2.2698278 0.55845207 0.60237718 -0.5703271 0.11772625
-0.17254151 0.21145 2.2746863 -0.70544642 -0.70491379 -0.073769972 0.17532112
-0.22211981 0.24321634 2.2746401 0.28525779 0.95275056 -0.10437591 0.094373696
0.24164812 0.25472569 1.8925334 -0.99628842 0.083478518 -0.020992104 0.10887767
0.24026665 0.24050599 1.8929088 0.35395837 0.85335195 -0.38275844 0.21056339
0.23672804 0.2480381 1.9003638 -0.84906775 -0.52537888 0.055327341 0.13355251
0.22478938 0.24159461 1.9241496 -0.87967974 -0.041162893 -0.47378168 0.046250466
0.21807618 0.23603608 1.9405973 -0.83758157 -0.38585246 -0.38674915 0.16986161
0.21303852 0.26370075 1.9507656 -0.52539277 0.4862324 -0.698241 0.1477959
0.20987342 0.25351477 1.956794 -0.85655951 -0.12557681 -0.50053608 0.078437001
0.20405726 0.25236192 1.966974 -0.94775897 0.069917016 -0.31123051 0.11632805
0.19669726 0.068709336 1.9874035 0.53918064 -0.79975843 -0.26395226 0.14413184
0.19661695 0.25059357 1.9853762 -0.98539615 -0.15048513 -0.079677634 0.16512397
0.19828598 0.081985749 1.9978664 0.85396498 -0.18517628 -0.48626491 0.21307012
0.19457379 0.26668349 1.988024 -0.35135749 0.81030321 -0.46899542 0.20372662
0.19538791 0.072458506 1.9963305 0.41551599 -0.81647271 -0.40089756 0.12287685
0.18924642 0.058619771 2.0082335 0.051964622 -0.86919546 -0.49173045 0.14628179
0.1935305 0.12325071 2.0381479 -0.73234642 0.48592505 -0.47701737 0.21977934
0.18437378 0.061933663 2.0470703 -0.64158034 0.7612291 -0.094365738 0.13924509
0.18007611 0.059542481 2.0554223 -0.24737094 0.95857447 -0.14121869 0.12509029
0.17390147 0.24072316 2.0349336 -0.71014351 0.70340413 -0.030311873 0.15874591
0.14143442 0.012131973 1.9546281 -0.90200716 0.29498944 -0.31522101 0.042752851
0.16587649 0.23464429 2.0457685 0.94275963 -0.31732816 -0.10250439 0.22811358
0.17099987 0.2133649 2.0737233 0.60009664 -0.77166152 -0.21076642 0.15978883
0.13796961 0.026368544 1.9661144 -0.87870127 0.4754934 0.042309675 0.092333615
0.15915953 0.30255139 2.0346282 -0.8308574 -0.48988 -0.26399535 0.07027296
0.16970736 0.21674511 2.0882246 0.48930946 -0.86776197 -0.086979844 0.24975611
0.13147052 -0.026067264 1.9742231 0.65787226 -0.45197439 -0.60243118 0.10668465
0.1304884 0.0052070338 1.9730673 -0.9306553 -0.089046888 -0.35489634 0.13230819
0.12770376 -0.025425568 1.9830956 0.6729641 -0.304241 -0.67420822 0.14054166
0.12478428 -0.042362321 1.9804727 -0.37388149 -0.4080255 -0.83290321 0.12305941
0.15345198 0.2035625 2.0808082 -0.79635268 0.59536362 -0.10660543 0.098306328
0.14768609 0.19311009 2.0736768 -0.67877275 0.63499445 -0.36884904 0.068652257
0.14943637 0.23029721 2.0828233 -0.42988881 0.21888351 -0.87594837 0.14657839
0.11914876 -0.05190606 1.9967588 0.060389962 -0.91901737 -0.38956407 0.14164501
0.13038009 0.050002664 2.0457089 -0.39453393 0.78022993 -0.48537004 0.078018449
0.15028553 0.20887934 2.1072721 0.012821591 -0.96153885 -0.27436954 0.2209136
0.11650091 0.0058771432 2.0053806 -0.98203146 0.18039171 0.055435505 0.17391326
0.14534064 0.24366233 2.0995617 -0.20747665 0.48397151 -0.85013241 0.22036488
0.1464984 0.21862866 2.1117494 -0.45817623 -0.48613665 -0.74414086 0.20173962
0.11154881 -0.060750756 2.0162506 0.69254351 -0.70528412 -0.15151833 0.15987791
0.10969154 -0.021092443 2.0122423 -0.38022944 0.77812326 -0.49994969 0.12096237
0.1414737 0.24851204 2.1088333 0.58992094 -0.091462649 -0.80226421 0.19301097
0.10618199 -0.065996706 2.0240347 -0.95514107 0.2953642 -0.021576816 0.17752945
0.10943589 0.00076859229 2.0482016 -0.77325779 0.48581073 -0.4075051 0.22467461
0.13427094 0.26315179 2.1307166 -0.11440769 -0.98522419 0.12745284 0.11884142
0.10605844 -0.06200856 2.0527837 -0.66749591 0.63168401 -0.39423928 0.15017766
0.10360929 -0.062939472 2.0707421 0.288028 -0.84736991 -0.4460988 0.18220156
0.10155605 -0.075413063 2.0671918 0.96284515 -0.11336945 -0.24510549 0.15320696
0.12810919 0.26893774 2.1444032 0.05655013 -0.99655849 0.060606927 0.11337794
0.088063449 -0.14089096 2.0447719 0.98919064 -0.1002147 -0.1070461 0.24340041
0.12479825 0.23710717 2.1539435 0.017681815 0.99108726 -0.13203549 0.24440821
0.098985657 -0.090164028 2.0819197 -0.499686 -0.034459352 -0.86552089 0.17975672
0.097172938 -0.099964142 2.0872917 0.95868182 0.03911813 -0.2817781 0.2477131
0.097049847 0.20463978 2.0837843 -0.49735177 -0.86742759 -0.014510798 0.096639328
0.090578072 -0.13074225 2.070549 0.97295409 -0.22225456 -0.06295386 0.1425844
0.11703084 0.24723431 2.1462591 -0.91608596 0.064736173 -0.39572185 0.10075262
0.096594103 -0.089551017 2.0991204 -0.93923092 0.3211748 -0.12121113 0.20999379
0.11906331 0.26397023 2.1704102 -0.21480829 -0.97657347 0.012719475 0.1508292
0.081286617 -0.14003743 2.0664711 -0.74084902 0.60148954 -0.29891968 0.15865941
0.094200075 -0.085718907 2.1094594 -0.47963378 0.48801854 -0.72923881 0.15637237
0.11757838 -0.047524601 2.1812925 -0.98204362 -0.081616804 -0.17008516 0.14074974
0.085985467 -0.10047683 2.0993869 -0.63621217 0.63569456 -0.43718007 0.15244222
0.11488103 0.27184492 2.179853 -0.1457065 -0.98111993 -0.12717421 0.063577376
0.083754703 -0.11140101 2.096117 -0.29325321 0.74770987 -0.59576219 0.24711622
0.091165282 -0.065717906 2.1198406 0.0036617154 0.31117228 -0.95034653 0.17355494
0.082370833 -0.0099172723 2.1105361 -0.84888428 -0.49548855 -0.18408284 0.099296451
0.07996884 -0.00047139745 2.115195 0.85832697 0.50001615 -0.1151466 0.090409912
0.10689408 0.23705015 2.1936307 -0.22487998 0.93852937 -0.26190022 0.21047488
0.10574114 0.27178618 2.1997387 0.3113896 0.91067928 -0.27147692 0.083194554
0.082502902 -0.096326225 2.1652386 -0.096181244 0.92134184 -0.37666741 0.13095918
0.10166722 0.25971732 2.2143195 0.4884797 0.21046744 -0.84681231 0.15945624
0.092704624 0.23415747 2.1930847 -0.53272617 -0.72743452 -0.4324834 0.19589593
0.083578743 -0.076341286 2.1801586 -0.26092684 0.22322866 -0.93919438 0.22521777
0.082096301 -0.093483001 2.1800711 -0.11383292 0.98720342 -0.1116754 0.063231297
0.081537634 -0.026283821 2.1901469 -0.77769274 0.15461978 -0.60933304 0.14185654
0.067844734 -0.35271034 2.1606033 -0.54411614 0.80128908 -0.24874389 0.11425856
0.089317568 0.063041717 2.2132044 0.88009065 0.12925541 -0.4568736 0.10155234
0.078149661 -0.27814716 2.1895106 0.94562918 0.09053272 -0.3123928 0.16650237
0.085555114 0.23177712 2.2035193 -0.30625805 0.82222873 -0.47973529 0.081121214
0.080321357 -0.091113277 2.1949198 -0.67626321 -0.13678353 -0.72384965 0.15702252
0.077320747 -0.25693959 2.1907792 0.60802281 -0.01815277 -0.79371202 0.099711552
0.089706227 0.074231423 2.2223155 0.14928868 0.98631901 -0.069912449 0.10992524
0.068491749 -0.35299924 2.17202 0.37301627 -0.90393537 -0.20918813 0.14635584
0.08115267 -0.072595268 2.2068243 0.28963453 0.21514398 -0.93264401 0.0849832
0.072541341 -0.29557636 2.1900239 -0.93204933 0.091222592 -0.35066012 0.18934272
0.076017402 -0.18143898 2.1996624 -0.9545663 -0.28517941 -0.086463861 0.11617476
0.09261106 0.23726699 2.2402306 -0.31593281 0.9375636 -0.1454681 0.16981639
0.073729508 -0.27540991 2.1995049 -0.94362831 0.097893693 -0.3161999 0.21879876
0.076753519 -0.086065874 2.2083409 -0.29076892 0.32362086 -0.90040153 0.1786264
0.083033822 0.065851249 2.2266541 0.6181193 0.60333872 -0.50389576 0.20471521
0.079093024 -0.20690899 2.2220216 0.92262352 0.17752302 -0.34241995 0.15547451
0.090905748 0.2696664 2.2468352 -0.19282962 -0.96784866 -0.16151081 0.17264043
0.090395927 0.2515347 2.2459476 0.73683125 -0.26461232 -0.62214154 0.18979955
0.082792118 0.076777689 2.239346 0.12390424 0.94230396 -0.31098399 0.11873835
0.077529833 -0.214275 2.2312257 0.87418574 -0.46081874 -0.15311839 0.1413532
0.053585216 -0.32813138 2.1717262 -0.91418761 0.21166526 -0.34562826 0.19530062
0.067696899 -0.28164819 2.2114508 -0.51908684 -0.046748079 -0.85344219 0.16078548
0.070249535 -0.12896991 2.2162251 0.64587641 -0.42610851 -0.63346291 0.05027977
0.066291265 -0.32890302 2.2206933 0.85321802 -0.39349505 -0.34231657 0.10371654
0.071872145 -0.22656599 2.2375867 -0.98625934 0.01043821 -0.16487457 0.21062236
0.084875658 0.26913425 2.2651293 0.11623728 0.95036376 -0.28861347 0.15648617
0.065359786 -0.14345293 2.2212465 -0.59185976 0.52772427 -0.60926932 0.21165507
0.071536124 -0.1976708 2.2390254 0.73478931 0.6405465 -0.223125 0.17412101
0.066948757 -0.25828233 2.2335076 0.19603567 -0.89998704 -0.38934982 0.20354733
0.067838401 -0.065125331 2.240077 0.30918041 -0.48432451 -0.81843585 0.091621868
0.063281707 -0.15978439 2.2325456 0.37617096 0.92517257 0.05051 0.17771409
0.056172274 -0.34514722 2.2266788 -0.81362778 0.5813477 -0.006679764 0.17292665
0.060030088 -0.12594137 2.2410269 0.37180403 0.42076042 -0.82747954 0.14676204
0.061674818 -0.24261215 2.2494659 0.2871381 -0.30985704 -0.90638864 0.2430356
0.054133721 -0.098275676 2.2497702 0.76274955 -0.47440904 -0.43948749 0.21575791
0.073232502 0.23872946 2.2940774 -0.35682121 0.92462575 -0.13321379 0.21111509
0.040397886 -0.36293909 2.223165 0.81976014 -0.55290568 -0.14929321 0.16511634
0.059016477 -0.042796772 2.2740886 -0.27210224 0.9367165 -0.22027819 0.082080305
0.03513756 -0.39310333 2.2186065 -0.34374556 0.75568938 -0.5574699 0.15322852
0.050063677 -0.083609752 2.2522457 0.64336061 -0.58251387 -0.49675417 0.22048818
0.038133625 -0.34550112 2.2285135 -0.49229279 -0.089595065 -0.86580628 0.13977936
0.035387922 -0.38256112 2.2230637 -0.92604381 0.23069088 -0.2987048 0.2365673
0.048657514 -0.13157009 2.2592766 0.58225369 -0.56160879 -0.58785743 0.18723515
0.044532117 -0.25561088 2.2576978 -0.89397693 -0.32436091 -0.30918491 0.16577551
0.032922491 -0.36652854 2.2299535 0.97899473 0.19116683 -0.070884675 0.26886097
0.043259006 -0.15251899 2.2590976 -0.28289086 -0.36888909 -0.88537765 0.21756044
0.024548976 -0.37851501 2.2276275 0.75105357 0.3288523 -0.57251614 0.21820788
0.025134176 -0.33336213 2.2459176 -0.17453857 0.77059132 -0.61296433 0.12533911
0.032306034 -0.30306169 2.26752 -0.75984955 0.20790838 -0.61595678 0.12533484
0.024894236 -0.32231262 2.255996 0.85014582 0.23401724 -0.47168651 0.20562004
0.025874717 -0.370933 2.2607121 -0.08912497 0.9916389 0.093322597 0.13625453
-0.079899676 0.22587915 1.9925032 0.82130408 -0.57000858 -0.023446988 0.10332578
-0.00059932459 -0.41177094 2.2055671 -0.38429955 0.8776232 -0.2865161 0.067812942
0.031558055 -0.063958645 2.2829766 -0.73125339 0.66000342 -0.17223209 0.23597461
0.035444167 -0.039382376 2.3055258 0.59173185 -0.77514505 -0.22136755 0.19683158
0.023865081 -0.11538407 2.2789421 0.031341299 -0.52054679 -0.85325772 0.20867221
0.017078539 -0.3703835 2.2674975 -0.40562984 0.91392696 -0.014208033 0.19278479
0.018754207 -0.27020317 2.2720156 -0.91223723 -0.29745743 -0.28167775 0.11449163
0.021037571 -0.24320038 2.279685 0.77446783 0.48536789 -0.40573105 0.13890956
0.014491138 -0.23414309 2.2754714 0.68401968 0.41223857 -0.60181093 0.13719457
0.01629634 -0.088864706 2.2819507 -0.82676393 -0.54827458 -0.12592205 0.16183922
0.017788677 -0.077714339 2.2935672 -0.89041895 -0.14404544 -0.43174645 0.14898883
-0.00069945422 -0.38535106 2.2635255 -0.37638077 0.9234786 -0.074328505 0.18682322
-0.10785137 0.22832684 2.0049698 -0.92271096 -0.37737381 -0.078698248 0.12666401
0.0029972759 -0.1330045 2.2811358 0.86952311 -0.45451057 -0.19326106 0.25148091
-0.028511435 -0.41357064 2.2124662 0.19066484 0.94958717 -0.24885972 0.056781139
-0.0026882372 -0.3307783 2.2738838 -0.8169474 0.26916984 -0.51004368 0.20237808
-0.01115216 -0.35224766 2.2661028 -0.62753761 -0.093108863 -0.77299893 0.22042392
-0.010256276 -0.33715904 2.2759757 0.58150131 -0.3012141 -0.75572902 0.15384445
-0.0063729235 -0.13881853 2.2830088 -0.92065877 -0.011713396 -0.39019266 0.18793188
0.0095004514 -0.080459267 2.3234279 -0.70624006 0.68696839 -0.17117047 0.18861197
-0.01119176 -0.2126065 2.2766237 -0.33632231 0.063298903 -0.93961722 0.1594103
-0.012302798 -0.30552682 2.2810445 0.082184978 0.41936278 -0.90409094 0.17836487
-0.016617797 -0.31645855 2.2782981 -0.25384399 0.31236908 -0.91541725 0.13026041
-0.051040873 -0.40951672 2.2093709 0.46364772 0.8788473 -0.11250899 0.092749827
-0.018133828 -0.27181855 2.291671 0.78373128 0.22591305 -0.57855731 0.088278152
-0.034506436 -0.34698176 2.2576435 0.38810033 0.51235729 -0.76607323 0.10373686
-0.021349093 -0.29210243 2.2902761 0.041225631 0.5361613 -0.84310824 0.1466497
-0.028858064 -0.17821194 2.2844582 0.42191362 0.29872784 -0.85600847 0.12200955
-0.039656434 -0.33751753 2.2653215 0.50429952 0.5124917 -0.69500667 0.084155291
-0.027408894 -0.27825823 2.2936826 -0.15169214 0.025775535 -0.98809165 0.17574787
-0.030355358 -0.30305505 2.2900839 0.25649109 -0.22886112 -0.93906069 0.22832485
-0.041805502 -0.3303881 2.2740993 0.034807336 0.6894685 -0.72347885 0.1167518
-0.034793846 -0.28809237 2.2933969 0.50079513 0.16939552 -0.84882832 0.18816143
-0.0555408 -0.34673622 2.2582214 -0.089171223 0.35221028 -0.93166322 0.095825851
-0.043433405 -0.29323512 2.2869585 0.62543333 0.17589168 -0.76019412 0.10420281
-0.023323178 0.12049747 2.3316379 0.80136448 -0.35866019 -0.47872522 0.1964957
-0.031475525 0.20078437 2.3137009 0.62707579 0.44278818 -0.64087015 0.17317903
-0.049076486 -0.21426964 2.283052 0.72603393 0.53276199 -0.43478662 0.17397526
-0.047524616 -0.27816817 2.2892365 0.8533386 0.28893706 -0.43396842 0.028480988
-0.01983881 -0.093858793 2.3519139 -0.094715416 0.34779492 -0.93277419 0.14330415
-0.023227302 -0.1097175 2.3457472 -0.3906078 -0.47975117 -0.7856617 0.26194483
-0.062539101 -0.33962229 2.2642574 -0.21168493 0.50397784 -0.83737439 0.14741541
-0.05119836 -0.24373055 2.2914121 0.37189326 -0.42207339 -0.82677048 0.14329863
-0.022024943 0.0066711172 2.3561256 -0.79250818 0.59793746 -0.12000658 0.145744
-0.056826841 -0.22245584 2.2849698 0.49471432 0.28170505 -0.82213134 0.22834469
-0.061400454 -0.1528033 2.284909 0.18959962 -0.41527033 -0.88972056 0.19706659
-0.068180919 -0.19816875 2.2759132 -0.097709753 -0.66653693 -0.73904079 0.17602161
-0.074738726 -0.33295003 2.2687678 -0.15304045 0.097868152 -0.98336178 0.23140673
-0.068417661 -0.14551784 2.2840657 0.28292605 -0.26379159 -0.92215341 0.2348773
-0.086383283 -0.35507718 2.2547975 0.51023787 0.63857764 -0.5760867 0.055860117
-0.051572468 0.13777585 2.3232434 0.024115546 0.9180603 -0.39570674 0.16452742
-0.048864584 0.1180311 2.3322217 0.08271943 -0.93695545 -0.339517 0.24673083
-0.047871016 0.053361446 2.3554325 -0.80318612 0.10689034 -0.58606005 0.15057881
-0.078188643 0.18691716 2.2902486 0.76335275 0.43121848 -0.48098144 0.15737793
-0.12937424 -0.18373469 2.1870766 -0.84741527 -0.095298566 -0.52230793 0.08549124
-0.067414358 0.11421622 2.3288987 -0.26399133 -0.78725231 -0.55726337 0.08974909
-0.1293987 -0.18303481 2.2024758 -0.90093303 -0.20080727 -0.38470247 0.095498048
-0.1006284 -0.269988 2.2699552 0.71902245 0.053170335 -0.69294995 0.097647078
-0.10833331 -0.3342461 2.2604384 0.47731566 0.75509948 -0.44943783 0.14494333
-0.13685843 -0.16995122 2.20029 -0.79552752 -0.099342532 -0.59771812 0.16963221
-0.076376282 0.21205723 2.3240573 0.27240238 -0.50672626 -0.81793976 0.18116184
-0.083568476 0.22325799 2.3130486 0.4980287 -0.71025813 -0.49749455 0.13073991
-0.084168307 0.24115501 2.3117008 0.76377416 0.44817132 -0.46453354 0.16839013
-0.067118689 -0.023728335 2.3689127 -0.44071588 0.40081954 -0.80318946 0.14152285
-0.099478744 0.23142639 2.2954583 0.26229143 -0.15058343 -0.95316726 0.15824106
-0.12026337 -0.31810358 2.2733965 0.85051787 -0.26827812 -0.45237839 0.2447591
-0.1197974 -0.30527186 2.2833824 -0.43013674 0.24820299 -0.86797327 0.17157327
-0.10975653 0.21676064 2.2970467 0.23124728 -0.2964901 -0.92661661 0.11291625
-0.074359447 -0.10697317 2.3805008 0.81126285 0.067230381 -0.58080351 0.20091569
-0.11234231 0.20400083 2.2965317 0.18649934 0.69819462 -0.69118899 0.1854265
-0.083425999 -0.024175953 2.3619692 0.19955519 -0.099846356 -0.97478634 0.10981765
-0.13408655 -0.33066294 2.2797301 0.79250014 0.57456887 -0.20448518 0.1231441
-0.090698086 -0.11681233 2.3686068 0.70771855 0.70435083 -0.054995 0.13960177
-0.080384612 -0.10062984 2.39007 0.030496905 0.99657845 -0.076820076 0.25433049
-0.15218323 -0.24045986 2.271925 0.74577683 -0.44633445 -0.494573 0.085016556
-0.16271286 0.19757006 2.243454 -0.33804858 -0.94045311 0.035651483 0.091455735
-0.16015637 -0.26741192 2.2672365 0.89833826 -0.34698394 -0.26942635 0.16644253
0.14765844 0.29047623 1.6513864 0.012451126 -0.94744438 -0.31967804 0.060583867
0.012895688 0.24747458 2.3566229 0.79324377 -0.1889843 -0.57883435 0.12094083
0.19228823 0.11349388 2.0480523 0.33411282 -0.39532661 -0.85561997 0.11196519
0.16257994 0.082726844 2.0750372 -0.46588853 -0.095431298 -0.87968224 0.23627816
0.17741066 0.067263126 2.066958 -0.17810756 0.94292355 -0.28137681 0.10587534
0.17584425 0.11105224 2.0671794 -0.94523758 0.15702164 -0.28612936 0.15860257
0.10924809 0.24123189 2.2010417 -0.6671204 0.72324383 -0.17851806 0.18147501
0.066744797 -0.2194735 2.2531223 0.45387229 -0.87314367 -0.17782024 0.12189902
0.054462403 -0.10389188 2.2545776 0.88293087 0.00091169711 -0.46950212 0.20612484
-0.013650029 -0.40986827 2.2161837 -0.084571339 0.92670888 -0.3661398 0.13996299
-0.098428898 -0.25182298 2.2767954 -0.21097898 -0.33577809 -0.91800922 0.19799984
0.24079996 0.26932827 1.9145929 -0.67368823 -0.6331718 -0.38110059 0.14688379
0.19423866 0.11336702 2.0513997 0.50120282 -0.56332624 -0.65685564 0.15949096
0.12100311 0.25901243 2.1537457 -0.70668221 -0.55700547 -0.43628564 0.24685869
