# .PCD v0.7 - Point Cloud Data file format
VERSION 0.7
FIELDS x y z rgb
SIZE 4 4 4 4
TYPE F F F U
COUNT 1 1 1 1
WIDTH 1086
HEIGHT 1
VIEWPOINT 0 0 0 1 0 0 0
POINTS 1086
DATA ascii
-1.4592923 0.72897667 2.1690271 4284444015
-1.473193 0.60138875 2.1800425 4287998133
-1.450725 0.74569851 2.1792393 4286024342
-1.4715927 0.58923721 2.1898043 4285299081
-1.4798864 0.57269728 2.1936331 4286283657
-0.77811724 -0.45798171 2.1635754 4284376678
-0.7740283 -0.47418872 2.1641278 4283846738
-0.76673889 -0.51253313 2.1887476 4283451459
-0.76893657 -0.53255969 2.1899159 4289176224
-1.4075072 0.72245842 2.2258892 4282401090
-0.77234113 -0.4881829 2.2048826 4283716434
-1.3889341 0.72161722 2.2512612 4282467397
-0.75271249 -0.52090114 2.2219315 4282991939
-0.75100404 -0.54929519 2.2230706 4284836455
-0.75311834 -0.50307912 2.2336507 4286152313
-0.74809533 -0.52481031 2.2379401 4286019696
-0.73507601 -0.57153189 2.2381048 4282991937
-0.74689561 -0.61788684 2.2428751 4285032301
-0.76766151 -0.6305874 2.2445447 4288653231
-0.71720618 -0.59587979 2.2485507 4282070580
-0.70742458 -0.58477807 2.2604995 4282005041
-0.74392301 -0.51394778 2.2650552 4286482563
-1.4340389 0.55448979 2.3166974 4289643217
-0.70620877 -0.608706 2.2666447 4286480772
-0.70431012 -0.59606475 2.2702887 4284900189
-0.7163052 -0.55954927 2.2738407 4285624167
-0.70710939 -0.61894476 2.2758558 4288060320
-1.3780637 0.58219165 2.3317261 4290169302
-0.72058809 -0.55120087 2.2877958 4284638561
-1.3936306 0.55038989 2.3415115 4290103253
-0.69505107 -0.61408311 2.2890005 4282070577
-1.3749968 0.57081777 2.3413482 4283849824
-1.406186 0.55086952 2.344161 4290103509
-0.73232996 -0.67007327 2.2958307 4286545541
-0.75656641 -0.68231088 2.3008125 4289902011
-0.72778714 -0.53112859 2.3005109 4282268989
-0.70797986 -0.55677348 2.3000405 4285952872
-1.3452154 0.57865936 2.3512592 4289840852
-0.695068 -0.63562334 2.3009019 4285493110
-0.7084524 -0.65846688 2.3039026 4286217347
-0.68861663 -0.62392443 2.3034797 4283518536
-0.71048975 -0.54637969 2.3063905 4282333492
-0.69822347 -0.64568502 2.3067393 4290560711
-0.68830502 -0.60407168 2.3087876 4282005040
-1.3345798 0.56464666 2.3612435 4288393409
-0.67668039 -0.62462211 2.3177891 4288783787
-0.73299539 -0.49410057 2.3253329 4282928977
-0.68279403 -0.58745432 2.3227775 4284899155
-0.70536184 -0.54671937 2.3248677 4281938479
-0.67700487 -0.60343242 2.325166 4286549398
-0.71531951 -0.52972293 2.3288238 4282663744
-0.74859858 -0.49350089 2.3373005 4284901990
-0.67204285 -0.63184953 2.3355117 4290757061
-0.71550328 -0.50743443 2.3390758 4286678140
-0.74008429 -0.4873032 2.3453834 4284901990
-0.66638625 -0.62275916 2.3404458 4282334005
-1.2270097 0.67473066 2.3996482 4284837743
-0.66189718 -0.60113478 2.3630316 4287993233
-0.65468514 -0.61362863 2.3633296 4282859836
-0.66453266 -0.63459051 2.3686335 4285295728
-0.67257208 -0.57153296 2.3792024 4284768084
-0.66681069 -0.59375453 2.3802328 4285031514
-0.67136836 -0.65546149 2.3815262 4287532688
-0.69159669 -0.52402276 2.3833077 4286347117
-0.69771773 -0.51361161 2.3851917 4287466625
-0.6563307 -0.62229961 2.3815513 4281807146
-0.65661657 -0.61776847 2.3975062 4284504658
-0.69130254 -0.51803434 2.4034853 4287795074
-0.65382957 -0.62582451 2.4052236 4282597176
-0.68060797 -0.55612236 2.4101713 4283715399
-1.2532519 0.5565486 2.4714117 4283982446
-0.6573261 -0.64869642 2.4128666 4287071100
-0.65242445 -0.62840432 2.4257894 4283518277
-0.65874672 -0.66296816 2.4299169 4292007383
-0.65614396 -0.63921124 2.434696 4285886823
-1.2330856 0.55898923 2.499635 4286945191
-1.3789855 0.45278123 2.524174 4288327871
-1.3947235 0.448461 2.5287869 4286484900
-0.65877587 -0.63249588 2.4479671 4284899416
-1.4032011 0.42793974 2.5400789 4290037202
-0.65997368 -0.61528385 2.456435 4285164137
-0.68481708 -0.52424031 2.4626646 4287598212
-1.2187183 0.55150193 2.5247095 4284312438
-1.3376584 0.44179374 2.5413244 4285692553
-1.1237973 0.62966347 2.5155928 4282663231
-1.319118 0.4468407 2.544503 4289314250
-1.1863215 0.56574583 2.5277843 4283519313
-1.3267856 0.43872303 2.5470021 4286219929
-0.65862238 -0.62318486 2.4703314 4283913293
-0.65494621 -0.63321167 2.474386 4284768602
-0.6599648 -0.65136594 2.4778669 4285229152
-1.2009455 0.55212027 2.5416687 4283521631
-1.3424345 0.41444093 2.5626469 4289642959
-1.3196739 0.4315376 2.559895 4286087571
-0.65877604 -0.61785585 2.482666 4283452484
-1.1192186 0.61701095 2.5354946 4282400316
-0.6814732 -0.53629005 2.4861681 4283387465
-1.2918779 0.43934172 2.5628605 4288196285
-0.6822232 -0.49407795 2.4912045 4288386181
-0.65373981 -0.63586968 2.4894912 4288915370
-0.67708045 -0.69385356 2.4931259 4286743947
-1.2739475 0.44232818 2.5695517 4283850081
-0.66315383 -0.60868067 2.4963374 4285360485
-0.68036973 -0.53957027 2.501291 4282662200
-1.2909474 0.41201171 2.5779955 4285757055
-1.258302 0.44865814 2.5738747 4288788422
-1.2422029 0.43842289 2.572279 4284640366
-1.2264192 0.45233023 2.5758052 4289445836
-0.66493261 -0.6478886 2.5129385 4291743955
-1.2148255 0.4779866 2.5836856 4284114282
-1.2188511 0.45555764 2.5869699 4284047972
-0.66749209 -0.56116134 2.5251584 4285031259
-0.67638391 -0.65721321 2.530638 4291677905
-0.6606434 -0.60670048 2.5302262 4282531127
-0.65781432 -0.64636153 2.5335903 4286085756
-1.0978159 0.61938494 2.5877798 4282727993
-0.66706502 -0.55003351 2.5366638 4282597178
-0.68695784 -0.6816023 2.544368 4291677905
-0.6560871 -0.62960094 2.542505 4286875788
-1.1119926 0.59549534 2.6002948 4285165936
-0.66056556 -0.60350019 2.5447576 4286610549
-0.66403478 -0.57761788 2.5463428 4286149481
-1.054261 0.67504585 2.6006272 4283255364
-1.1090826 0.59851247 2.6150887 4285166707
-0.65700477 -0.65816921 2.5580935 4291875541
-0.67156655 -0.52182555 2.562439 4284307537
-0.6918357 -0.67447299 2.5688393 4289375663
-0.66200936 -0.65683174 2.5722387 4291481041
-0.67221642 -0.50687063 2.5783632 4284505430
-0.66681772 -0.63792509 2.59797 4285229154
-0.66637629 -0.5650261 2.5997946 4284308308
-0.67497689 -0.64229202 2.6056309 4288521130
-0.66705537 -0.59876543 2.6069305 4284900188
-0.67915744 -0.30180821 2.6077929 4289178025
-0.70976663 -0.43139616 2.6146476 4282794815
-0.67624348 -0.35215273 2.612823 4287993750
-0.67011994 -0.61266476 2.6164804 4285690481
-0.67549735 -0.48423994 2.6166613 4287992978
-0.66766638 -0.59369403 2.618027 4285295464
-0.66462612 -0.57559013 2.6175306 4286743169
-0.67659426 -0.2877599 2.6177249 4288256921
-0.66975629 -0.31520018 2.6213434 4284835944
-1.0878748 0.25211707 2.6898878 4288914330
-0.65434438 -0.29655802 2.6262457 4283980631
-0.67581028 -0.59866714 2.6325181 4288849837
-0.70601851 -0.42181435 2.6363962 4284110158
-0.65540153 -0.31028804 2.6278329 4287926146
-0.66933692 -0.37958068 2.6326859 4288981163
-1.0506829 0.29505393 2.6936288 4285298550
-0.6402356 -0.31762466 2.6323521 4282795330
-0.63256377 -0.33992875 2.6343889 4287730322
-0.67035246 -0.5057832 2.6429317 4288322460
-1.0533663 0.24540603 2.7017694 4283255628
-0.68171179 -0.59789187 2.6471229 4285426016
-0.67146224 -0.39012364 2.6474512 4290757577
-0.62938845 -0.35135481 2.640099 4283519577
-0.67483413 -0.55575848 2.6526947 4290099389
-0.6833722 -0.40702274 2.6547642 4284963406
-1.0708997 0.22339883 2.7155254 4281674019
-0.67811471 -0.52956372 2.6575212 4283189316
-0.65764552 -0.27298155 2.6522775 4287861383
-0.67007369 -0.4737896 2.6584764 4285822064
-0.64858043 -0.37414819 2.655968 4291875540
-0.68482453 -0.57091463 2.6656799 4289441974
-0.67920184 -0.51585752 2.6695886 4286808445
-1.0353045 0.8138476 2.7205818 4282401345
-0.67381346 -0.47576395 2.669389 4289902525
-1.0175291 0.27170333 2.725409 4284772464
-1.1122751 0.17755771 2.7427528 4282331691
-0.69376487 -0.57767552 2.6790247 4285953910
-0.68578136 -0.52772713 2.6772799 4285294945
-0.63467729 -0.36582446 2.6670761 4290428610
-0.66267955 -0.24969713 2.67399 4287861125
-0.69331408 -0.55474567 2.6835895 4288257443
-0.67524695 -0.48385185 2.6811934 4285952104
-0.67081106 -0.45911258 2.68168 4290625989
-0.62460113 -0.34007344 2.6730127 4284374627
-1.1225157 0.1662377 2.7575843 4281805605
-1.1304324 0.15430784 2.7605031 4289111966
-0.67515808 -0.418432 2.6858628 4287862165
-0.68391287 -0.53095555 2.6896162 4287401358
-0.70942289 -0.56642181 2.6952791 4285690480
-0.65845776 -0.24982083 2.6850593 4285229409
-0.69300717 -0.540703 2.6948881 4288520358
-0.68409598 -0.4743211 2.6938477 4291481040
-0.66795266 -0.43960696 2.6927524 4290363589
-0.66479957 -0.42588127 2.693347 4290690750
-0.69429654 -0.51386517 2.7001796 4290033594
-0.62762594 -0.34314156 2.687485 4282202423
-0.65259713 -0.38918218 2.6950788 4290165440
-0.69691432 -0.53534806 2.7114892 4286677636
-0.63096315 -0.35217634 2.6980305 4288784044
-0.67623335 -0.44669068 2.7072072 4288651938
-0.66993403 -0.40442044 2.7077389 4284637019
-0.66555113 -0.23668432 2.7074268 4281676076
-0.64964098 -0.3802413 2.7059236 4283848278
-0.67958617 -0.46154082 2.7130196 4286413424
-1.1366678 0.16468564 2.7922277 4282991161
-0.66271108 -0.43708745 2.7131748 4292072919
-1.1206664 0.17680633 2.7926848 4289111709
-0.70417964 -0.53029835 2.7247739 4285822587
-0.6773451 -0.4442443 2.7207525 4285557859
-0.68282688 -0.20075965 2.721004 4287202938
-0.67198753 -0.2137261 2.7192879 4286939252
-0.63631392 -0.33369786 2.7163465 4283058243
-0.69185346 -0.48203331 2.7300248 4287796632
-0.64551395 -0.3651779 2.7239919 4288455080
-0.68068361 -0.43591508 2.73295 4285098081
-0.70422971 -0.51345134 2.7387569 4286018410
-0.64226091 -0.34849614 2.7377887 4288520873
-0.70151472 -0.16986643 2.7543933 4286084461
-0.68010038 -0.20630312 2.7511177 4281938991
-0.71363109 -0.14410086 2.7620997 4287400832
-0.64712244 -0.35616419 2.7513757 4288126115
-0.7139101 -0.13796803 2.7740228 4283717204
-0.66620368 -0.35056701 2.7716863 4284703594
-1.0407591 0.39522925 2.8390133 4289111709
-1.0266055 0.3790504 2.8461654 4283188797
-1.0411452 0.39730319 2.8499768 4289111710
-0.73705256 -0.11971015 2.7947955 4284571993
-0.72150362 -0.13862313 2.7970407 4286742646
-0.71970582 -0.15947562 2.8000154 4282597695
-0.75667089 -0.10943545 2.814204 4284440409
-0.91716713 0.17239325 2.8494065 4280754720
-0.73692471 -0.1284887 2.81796 4287729283
-0.73723543 -0.14956254 2.8277798 4286744447
-0.76545787 -0.10838537 2.834245 4286350203
-0.74745482 -0.13952976 2.8418581 4287071609
-0.77248681 -0.096377991 2.8475106 4286153340
-0.75992638 -0.11672102 2.8535995 4285691505
-0.83703703 0.23139013 2.8714581 4282465334
-0.77021968 -0.12734637 2.8809528 4285360736
-0.81971812 0.21034092 2.8925121 4284311657
-0.83735973 0.14359215 2.8972297 4280754202
-0.76285416 0.75838929 2.8774014 4287802296
-0.82069767 0.15318634 2.9027529 4281674018
-0.75933933 0.77153248 2.8861198 4283192153
-0.74490243 0.76401711 2.8915689 4287407022
-0.80461687 0.19361353 2.9121077 4282138434
-0.89441448 0.28717592 2.9425449 4283057211
-0.89323515 0.28483391 2.954427 4289111710
-0.7836411 0.19529903 2.9398828 4285233788
-0.88206494 -0.060046196 2.9676046 4282267954
-0.87588471 -0.035971079 2.9669328 4284769116
-0.89305162 -0.025341837 2.9758527 4282202418
-0.77021664 0.19636935 2.9515448 4284969587
-0.71291846 0.75263375 2.9370298 4287735734
-0.87739265 -0.053290877 2.9958293 4287333752
-0.8946631 -0.024430491 3.000644 4287137660
-0.87220454 -0.078959204 2.9973021 4288451974
-0.88523901 -0.037694048 3.003387 4288057473
-0.75501877 0.18860087 2.9718406 4284772980
-0.69953865 0.74928927 2.9623058 4290102735
-0.79224479 0.2476242 2.9995098 4283717978
-0.68590039 0.78340143 2.9831445 4289576649
-0.7414012 0.20657258 3.0050249 4281875520
-0.76295894 0.21491207 3.0104849 4283521884
-0.689152 0.76676756 2.9869187 4289971151
-0.73553121 0.15472162 3.007406 4286156448
-0.72758079 0.17135033 3.0077991 4283389784
-0.72657526 0.18185623 3.0129936 4284771437
-0.68733108 0.78199756 2.9987514 4288261819
-0.69624925 0.74664569 3.0040071 4285825938
-0.69243664 0.76237488 3.004374 4289839564
-0.72594947 0.1513848 3.0254662 4289380297
-0.71952271 0.168025 3.02528 4288787905
-0.72170675 0.14927772 3.0358896 4284773758
-0.71667236 0.19104323 3.0378101 4288130235
-0.68060249 0.76630044 3.0218706 4285101695
-0.70878863 0.15960021 3.0408273 4289380815
-0.72681063 0.21295302 3.0583911 4283915356
-0.70122713 0.18083091 3.0548711 4288262334
-0.71352613 0.12868242 3.0596101 4287276214
-0.69536942 0.16000488 3.0662162 4285102457
-0.69103277 0.14453176 3.0685229 4289051078
-0.76980603 0.088086508 3.0936244 4282928721
-0.68641764 0.74792778 3.067338 4287469220
-0.68607402 0.1521557 3.0753953 4287142820
-0.68352878 0.17754136 3.0787487 4284376936
-0.68426675 0.16413289 3.0797608 4287999159
-0.67983103 0.12983212 3.0975871 4286223267
-0.67080063 0.15641935 3.1021047 4287669423
-0.66488189 0.14033119 3.1232357 4284706930
-0.66386533 0.14033048 3.1386697 4284574058
-0.66708285 0.12206286 3.1408768 4285694091
-0.69175333 0.7442196 3.1584516 4290036945
-0.64812022 0.75888181 3.1500988 4283455322
-0.62260145 0.78058338 3.1444919 4289510088
-0.70128375 0.73845917 3.1890905 4290299088
-0.57573557 0.82286167 3.1680305 4289247688
-0.701388 0.14270054 3.2379975 4288788675
-0.71212959 0.13824365 3.2505126 4286288028
-0.71544814 0.15994348 3.2682781 4284575344
-1.3903058 0.20544976 3.7914469 4282069806
-1.3999786 0.22167288 3.8052194 4287335039
-1.4024822 0.21146597 3.8158488 4283781707
-1.4045469 0.22325027 3.8302979 4287334010
-1.4078016 0.22824657 3.8418691 4285492064
-1.7186408 0.7167818 1.981198 4287735475
-1.5797971 0.66806448 2.0793853 4284378481
-1.5412959 0.81456786 2.0864682 4287669685
-1.5308667 0.77745527 2.1035063 4284575601
-1.5286016 0.79062611 2.1112084 4286617251
-1.5417528 0.66031206 2.1146545 4286288544
-1.5221056 0.70989591 2.1239502 4286880683
-1.512349 0.69788641 2.1294956 4287012268
-1.496556 0.79761291 2.1400511 4283323738
-1.4959 0.7741012 2.1419432 4282928206
-1.4845265 0.73109645 2.1471312 4287274922
-1.4618448 0.73851752 2.1711423 4287407800
-1.4531085 0.74592835 2.1793602 4286024342
-1.4133381 0.72295618 2.2262421 4282401090
-1.3958569 0.72225255 2.2517159 4282467397
-1.2162499 0.64403838 2.4131184 4288722625
-0.67888629 -0.55590689 2.4099746 4283715399
-0.67464006 -0.5785774 2.4272554 4281675818
-1.1745212 0.58697063 2.5064247 4283518281
-1.2064012 0.55248749 2.5423729 4283521631
-0.65622795 -0.61749578 2.4823296 4283452484
-1.1239818 0.61740285 2.5361123 4282400316
-0.6634813 -0.66814876 2.5013013 4287270546
-0.66086137 -0.64709872 2.5123768 4291743955
-1.0917897 0.70174271 2.5667951 4282269759
-0.66954714 -0.65574098 2.5296719 4291677905
-1.1148306 0.59568459 2.600704 4285165936
-1.054458 0.67313588 2.5994883 4283057473
-1.1120359 0.59872591 2.6155226 4285166707
-0.71257317 -0.43298432 2.6017768 4283386177
-0.66382682 -0.56465977 2.5993888 4284308308
-0.67540711 -0.30138209 2.607192 4289178025
-0.6655159 -0.5933311 2.6176763 4285295464
-0.6732226 -0.59831357 2.632086 4288849837
-1.0389458 0.81424922 2.7212112 4282401345
-0.69147182 -0.57732451 2.6786199 4285953910
-0.6733734 -0.48362726 2.6808598 4285952104
-0.6744886 -0.47900853 2.696825 4285820517
-0.63343459 -0.33376414 2.7158048 4283058243
-0.63491344 -0.34056044 2.7293727 4288191907
-0.64072782 -0.34834781 2.7374928 4288520873
-0.7004385 -0.16964093 2.7541845 4286084461
-0.67888796 -0.20594856 2.7508833 4281938991
-0.71699071 -0.15908973 2.799463 4282597695
-0.67100626 -0.33489665 2.7974432 4283189835
-0.74696106 -0.13957183 2.841754 4287071609
-0.84095216 0.23222226 2.8722844 4282465334
-0.77031535 -0.12736748 2.8809738 4285360736
-0.83582163 0.16806848 2.8924136 4281017376
-0.8239823 0.83168727 2.8934405 4282730054
-0.81345582 0.66647947 2.917248 4283516990
-0.89407963 0.28522944 2.954613 4289111710
-0.71091211 0.7728309 2.9436798 4284969844
-0.87875718 -0.05348637 2.9961581 4287333752
-0.89584935 -0.024390582 3.0009282 4287137660
-0.75523317 0.1887926 2.971889 4284772980
-0.72822815 0.18163054 3.0134151 4284771437
-0.68841946 0.7822513 2.999022 4288261819
-0.72558439 0.15135697 3.0253732 4289380297
-0.64953274 0.81594121 3.0381713 4285497227
-0.68828511 0.74817932 3.067837 4287469220
-0.68383735 0.17763342 3.0788307 4284376936
-0.7066595 0.72248775 3.1029768 4283845698
-0.69475847 0.75099027 3.1182163 4290955730
-0.66513342 0.14040768 3.1233056 4284706930
-0.61136222 0.81043518 3.1120689 4284772474
-0.69530785 0.74440533 3.159492 4290036945
-0.59859735 0.81697297 3.1338887 4287011755
-0.7198801 0.15972693 3.2696683 4284575344
-0.46123484 0.81959015 3.4085786 4284904321
-0.62668967 -0.35124984 2.697257 4288784044
-0.68830413 0.1521713 3.0759962 4287142820
-0.69568866 0.75107712 3.1184716 4290955730
-0.52473491 0.79928946 3.2728193 4285891985
-0.76418376 0.19696803 2.9769161 4284510068
-0.58066344 0.81326407 3.1807046 4286548119
-1.1400712 0.63122219 2.51613 4282795073
-0.74781811 -0.5242067 2.2425332 4286282353
-0.69626409 -0.51276559 2.3849154 4288058505
-0.69024372 -0.51781869 2.4031248 4287795074
-0.66914779 -0.55068034 2.5369256 4282596921
-0.65545881 -0.62974519 2.5422988 4286744202
-0.6801089 0.15644379 3.1034541 4287143079
-1.1817939 0.65685314 2.4583828 4287801523
-0.68300492 0.14543881 3.1068602 4284904053
-1.168993 0.78274465 2.627281 4281478958
-0.58741617 0.80489516 3.2339644 4289116614
-0.77551383 -0.46677828 2.1598673 4290160272
-0.76661736 -0.53235221 2.1897762 4289569691
-1.4703948 0.60120928 2.1799037 4287932597
-0.70376581 -0.60834944 2.2664509 4286612099
-0.71404392 -0.63819468 2.2770629 4289244852
-1.3954128 0.72219867 2.2516844 4282730569
-0.70143765 -0.63769883 2.289489 4289442746
-1.3883458 0.65271705 2.2538538 4285497479
-0.7049312 -0.55612701 2.2997761 4285821287
-0.70700037 -0.65762973 2.3037717 4285756797
-0.68489778 -0.61446106 2.3069191 4288585890
-0.7052933 -0.54568839 2.3059316 4282399799
-0.67244691 -0.62360877 2.317399 4288454565
-0.66910374 -0.63113952 2.3352289 4290033339
-0.65002602 -0.62415463 2.3503907 4287532173
-0.64946628 -0.61264563 2.3627901 4282991165
-1.3555003 0.57911551 2.3521447 4289775059
-0.68933326 -0.52362072 2.383065 4286610288
-1.3430374 0.56506485 2.3619921 4288656838
-1.2289166 0.67432451 2.3998375 4284837486
-1.2609652 0.54866278 2.4799018 4289708495
-0.67317277 -0.69299704 2.492605 4286941582
-0.6624251 -0.66789126 2.5011594 4286677894
-1.1863811 0.58352566 2.4987144 4289379528
-0.66651785 -0.64848024 2.51316 4291415247
-1.1284645 0.63003397 2.5161784 4282926659
-0.67887032 -0.67237461 2.5304334 4284900967
-1.1259335 0.61734605 2.5363677 4282531902
-1.3177606 0.45368448 2.546169 4287273899
-1.1187918 0.62009162 2.5525444 4282924855
-1.3458173 0.41621348 2.5630755 4289248460
-0.69639111 -0.67738622 2.5695403 4289835700
-1.1901231 0.7705726 2.5717983 4281940022
-1.1833138 0.5444541 2.5930016 4284509036
-1.1109952 0.59525424 2.6001523 4285363570
-1.1134421 0.5986824 2.6157317 4285232243
-0.66846478 -0.61220825 2.6162107 4285887860
-0.66885191 -0.57631183 2.6182172 4287138185
-1.141396 0.78015131 2.6266568 4282005045
-0.65293294 -0.29782343 2.6260231 4284112219
-1.1343962 0.78099233 2.6367733 4282070836
-0.66911322 -0.37946102 2.6326478 4289704887
-0.67302138 -0.58157802 2.6398163 4285557858
-0.67648411 -0.55622882 2.6529772 4289902009
-0.68327898 -0.57055503 2.6654112 4289441974
-0.67268431 -0.51467425 2.668448 4286676857
-1.0304241 0.2989352 2.6999528 4282135086
-0.70546335 -0.56498313 2.6945636 4286941065
-0.69863701 -0.55271524 2.6943095 4288520357
-0.69363445 -0.54065126 2.6949995 4288322979
-0.67895234 -0.22308485 2.6979537 4286942339
-0.63495421 -0.36081964 2.6983182 4289704890
-0.97854167 0.69947261 2.709594 4282662200
-1.0394278 0.32227358 2.7176869 4282333749
-0.67677587 -0.40584749 2.7090013 4284637019
-1.0288017 0.29041463 2.7211146 4284838000
-0.6704706 -0.41737071 2.7105973 4289046441
-0.68058276 -0.46170393 2.7132037 4286413424
-1.0202379 0.27334717 2.7258706 4284640622
-0.66907489 -0.21346925 2.7187452 4286347374
-0.72590816 -0.56267965 2.722198 4290560198
-0.68454057 -0.20031731 2.721318 4286808182
-0.66752672 -0.4241882 2.7240469 4285755236
-0.68429536 -0.47019342 2.7250226 4284965980
-0.68415755 -0.4520618 2.7270429 4287795340
-0.69823939 -0.17237304 2.7278535 4282993219
-0.68981349 -0.48168936 2.7296412 4288191391
-1.0253195 0.22991171 2.7426488 4283650637
-0.63721228 -0.32484153 2.7283463 4282465849
-1.1192948 0.17050169 2.7497818 4282068261
-0.68449885 -0.4364464 2.7336695 4285032031
-1.1258579 0.16604891 2.758177 4281871398
-0.69900781 -0.49995106 2.7432885 4288915629
-0.69508088 -0.43192694 2.7429225 4288454561
-0.64583373 -0.35289291 2.7427738 4284045656
-1.1329564 0.15367968 2.7695334 4281740327
-0.68773431 -0.20784952 2.7526054 4282004783
-0.70217842 -0.16976918 2.7545204 4286478703
-0.64830852 -0.34784731 2.7546778 4284571744
-0.71772802 -0.48438603 2.7614324 4288191907
-0.71186054 -0.47032207 2.7645507 4285295206
-0.72838545 -0.50450844 2.7725761 4285755755
-0.72706616 -0.46924746 2.7751033 4284899931
-0.66781247 -0.3501856 2.7720044 4284572266
-0.71464896 -0.1379692 2.7741683 4283782483
-0.73564857 -0.45824036 2.7903976 4285493100
-0.72135347 -0.1394937 2.7970176 4286282097
-0.67461646 -0.33606631 2.8015161 4283650383
-0.73750156 -0.1288895 2.8180823 4287860868
-0.73721164 -0.14953849 2.8277748 4286481789
-1.0389587 0.37907821 2.8486371 4283583813
-0.76275003 -0.10761032 2.8336735 4286349947
-1.0455418 0.39747134 2.8508565 4289111710
-0.88485581 0.15355527 2.8479538 4282333748
-1.023113 0.36900195 2.8576248 4281346081
-0.74722826 -0.13948372 2.84181 4286808694
-0.77053839 -0.096237242 2.8470979 4286285182
-0.76050645 -0.11669937 2.853723 4285823604
-0.83099306 0.24062963 2.8590748 4281872940
-0.76058328 -0.13282147 2.8643146 4285952102
-0.8351754 0.23210636 2.8710537 4282531384
-0.84570801 0.82761472 2.8744948 4283388499
-0.76536405 -0.12704132 2.8798864 4286018922
-0.76379985 0.75838172 2.8776102 4287867832
-0.81601769 0.21070826 2.8916943 4284377450
-0.79486251 0.6819188 2.8885345 4283189058
-0.75968164 0.77153021 2.8861971 4283060565
-0.78277367 -0.12445355 2.8982527 4287071866
-0.81383908 0.16869396 2.9120195 4281676850
-0.80467916 0.19415992 2.9121156 4282006590
-0.76895952 0.71033221 2.9291329 4288523967
-0.78274691 0.19527538 2.9396751 4285102458
-0.71076429 0.75212735 2.9365244 4287801527
-0.71510971 0.77284056 2.9446874 4284904051
-0.9722138 0.035577834 2.9751344 4284769372
-0.8804751 -0.058291614 2.967216 4282136625
-0.75490117 0.18851975 2.9718132 4284772980
-0.87962258 -0.053160682 2.9963624 4287070580
-0.89720303 -0.024552291 3.0012546 4287137660
-0.88455105 -0.037924733 3.0032239 4288057216
-0.68523043 0.78326774 2.9829793 4289576906
-0.74425024 0.20645528 3.0057383 4282072899
-0.68673176 0.78192222 2.9986007 4288129977
-0.77378565 0.21583609 3.0131807 4284970101
-0.69674808 0.74648249 3.0041361 4285760145
-0.7272265 0.18191974 3.0131574 4284771693
-0.72816813 0.16205724 3.0136909 4288723141
-0.86228347 -0.22194919 3.0416112 4282399800
-0.7764042 0.23908541 3.0327229 4281941051
-0.72247297 0.14926796 3.0360878 4284642172
-0.71770817 0.19106099 3.0380783 4288195772
-0.67828429 0.76377523 3.0311604 4285431948
-0.64858371 0.81574029 3.0379241 4285628813
-0.70463163 0.18072478 3.0557709 4288393920
-0.7371999 0.21357629 3.0611181 4283783513
-0.65171021 0.80067527 3.0471413 4286682020
-0.71422142 0.12885176 3.0597918 4287210421
-0.74873805 0.10567588 3.0695381 4288984260
-0.69453543 0.15993613 3.0659947 4285102457
-0.67829984 0.75755328 3.0607162 4291679966
-0.69216371 0.14453296 3.0688255 4288985286
-0.68467188 0.17753777 3.0790579 4284376937
-0.68454319 0.16414395 3.0798087 4287999159
-0.76987886 0.088235348 3.093642 4282928720
-0.67999142 0.12982772 3.0976312 4286354853
-0.70616984 0.72160876 3.1028571 4283977026
-0.74069345 0.080023564 3.1193414 4291218902
-0.68307441 0.75013191 3.1149299 4290364108
-0.62001944 0.78851891 3.126272 4286943392
-0.65041554 0.76223701 3.1451111 4286944934
-0.63958162 0.77480793 3.1519206 4290889936
-0.70503217 0.73909104 3.1901991 4290167759
-0.5569194 0.80120331 3.2288272 4289248200
-1.5703326 0.78278661 2.0668905 4287735475
-0.77803928 -0.45780963 2.1635563 4284442213
-0.76435721 -0.516653 2.1898589 4287597973
-0.76780611 -0.53245038 2.1896853 4289569691
-1.4716959 0.71996814 2.151263 4284772982
-0.75200576 -0.52068746 2.221777 4282992195
-0.74750692 -0.52467674 2.2378106 4285954161
-0.72703624 -0.56237793 2.2468095 4287203455
-0.71131229 -0.57328492 2.255873 4286216816
-0.70502049 -0.60850447 2.2663751 4286612099
-0.74299914 -0.51355511 2.2648411 4286350977
-0.707322 -0.57972687 2.269027 4282531384
-0.70302379 -0.59126669 2.2732487 4284899931
-0.69924045 -0.60339063 2.2754762 4284768859
-0.70508993 -0.61861253 2.275394 4288850093
-0.71996129 -0.55111706 2.2876506 4284375389
-0.72536606 -0.52061182 2.2934437 4285431933
-0.69109464 -0.61211669 2.298171 4282465594
-0.70649189 -0.55655313 2.2996891 4285821287
-0.70795953 -0.54605842 2.3057935 4282399799
-0.68770009 -0.60387915 2.30864 4282136883
-0.67462027 -0.62413198 2.3172863 4288454565
-0.67061192 -0.63153774 2.3351564 4290033339
-0.71371645 -0.50744885 2.3386488 4286941312
-0.66329026 -0.60820067 2.3474817 4282202164
-0.65215033 -0.61308891 2.3626831 4282991165
-0.66085082 -0.60089791 2.3627644 4287927184
-0.69049799 -0.52379549 2.3830242 4286610288
-0.65581316 -0.61756879 2.3972936 4284438864
-0.65133393 -0.62771642 2.4255428 4283781193
-0.65299267 -0.63856733 2.4338379 4286149481
-0.65464926 -0.61913997 2.4425526 4282925884
-0.65608662 -0.63194668 2.4472253 4284768087
-0.65870893 -0.6149857 2.4560831 4285229929
-0.68433833 -0.52413815 2.4625738 4287532677
-0.65508395 -0.63320887 2.4744234 4284834396
-0.65834081 -0.65127587 2.4774132 4285097566
-0.68032628 -0.53605944 2.4858427 4283255878
-0.65320617 -0.63568264 2.4893351 4288717991
-0.67518491 -0.69342357 2.4925847 4286941582
-0.6796118 -0.53940338 2.5010724 4282531128
-1.183483 0.58346891 2.4987316 4289379528
-0.6667515 -0.56099534 2.52494 4285031002
-0.66043282 -0.59802461 2.5365875 4286149223
-0.66772306 -0.55025625 2.536761 4282596922
-0.65549523 -0.62943101 2.5423265 4286744459
-0.67136401 -0.52179718 2.5623779 4285162331
-0.67117041 -0.50665134 2.5780418 4284242515
-1.0952376 0.61924648 2.5870605 4282926402
-0.66667479 -0.57583928 2.6181753 4287138185
-0.67250055 -0.61578351 2.6214571 4288652201
-0.63136256 -0.33970439 2.6339986 4287862424
-0.67247587 -0.51244605 2.637183 4285426017
-0.67086273 -0.49966124 2.643007 4285820774
-0.68279564 -0.59016818 2.6494143 4289310130
-0.67563355 -0.55594742 2.6529562 4289902009
-0.67605108 -0.51518923 2.6685517 4286676857
-0.68422103 -0.5274455 2.6767654 4285689960
-0.668329 -0.45876381 2.6808579 4290691523
-0.69559324 -0.51419717 2.7006171 4290296509
-1.0313361 0.28355679 2.7160504 4281216557
-0.66472369 -0.42699501 2.704128 4287662720
-0.67387688 -0.45221791 2.7082472 4285558631
-0.66549027 -0.23666796 2.7074063 4281544490
-0.67246491 -0.40976653 2.7137978 4284439636
-1.0259645 0.37416556 2.7545676 4281939507
-0.92188716 0.70174068 2.7594798 4283123266
-0.71818322 -0.48397368 2.761462 4288191907
-0.84420556 0.82752854 2.8743784 4283388499
-0.70070904 0.74951714 2.9627693 4290036942
-0.87254316 -0.079180919 2.997438 4288386438
-0.89588928 -0.024446307 3.0011191 4287137660
-0.88164014 -0.056584291 3.0013924 4283585616
-0.88490319 -0.037904877 3.0032601 4288057216
-0.68974918 0.76684707 2.9871585 4289905615
-0.72815794 0.17140296 3.0080326 4282731342
-0.70823818 0.159591 3.0405989 4289249230
-0.73179525 0.21311408 3.060473 4283783513
-0.71385998 0.12875481 3.0597491 4287210421
-0.69497055 0.1600237 3.0660472 4285102457
-0.69157606 0.14452417 3.0687532 4288985286
-0.68426675 0.16413289 3.0797608 4287999159
-0.67990899 0.12985268 3.0976202 4286354853
-0.61009479 0.79271472 3.1361959 4286614685
-0.64576 0.76909739 3.1468184 4286088336
-0.62496305 0.78068256 3.1455531 4289707210
-0.7689299 -0.48770583 2.2047372 4283848020
-0.72092867 -0.52604479 2.3127236 4282268214
-0.65099359 -0.64766991 2.4412358 4291086026
-0.6548245 -0.62620652 2.459887 4284504914
-0.9781425 0.69948 2.7095761 4282662200
-0.77325332 -0.49937022 2.1651101 4290291343
-0.70421726 -0.57490563 2.2793841 4285294686
-0.70394921 -0.55525249 2.3106265 4287006847
-0.73259944 -0.4936195 2.3259628 4282271563
-0.77459025 -0.46673563 2.1599457 4290291601
-0.77239281 -0.50129241 2.1651027 4290291343
-0.7704668 -0.52023411 2.178592 4290291599
-0.76518786 -0.5071891 2.18455 4283451201
-0.76522505 -0.53226918 2.1898844 4289897620
-0.77171361 -0.4876411 2.20453 4283914069
-1.5772766 0.78542453 2.0662568 4287801011
-1.5498385 0.81425548 2.0811892 4288327618
-1.5725367 0.75532871 2.0815206 4288196027
-0.71015364 -0.57303268 2.2559476 4286282094
-0.70397335 -0.60837352 2.2664378 4286875529
-1.5432515 0.69414043 2.1103337 4284179044
-0.73280299 -0.63945597 2.2641616 4286414469
-0.74294293 -0.51326454 2.2648478 4286613635
-0.72901148 -0.53856492 2.2689426 4286019953
-0.70530915 -0.5750953 2.2793183 4285492065
-1.4981595 0.7973212 2.1402962 4283257430
-1.4976722 0.77379918 2.1414552 4283191121
-0.71908033 -0.55092245 2.2877002 4284506718
-1.4904164 0.70625895 2.1471343 4287274666
-0.68639249 -0.62312758 2.303463 4283650122
-0.69905311 -0.64593136 2.3066025 4289837247
-1.4631186 0.73840821 2.1706588 4287341749
-0.67093879 -0.6315428 2.335145 4289572788
-0.6652211 -0.6134696 2.3387771 4286545792
-1.4863735 0.57265621 2.193923 4285757572
-1.5080373 0.55581003 2.1943095 4290888647
-0.71321005 -0.50822484 2.3386614 4286809726
-1.4141556 0.72289681 2.2261486 4282598468
-0.67689162 -0.65216255 2.3520663 4290429125
-0.65501595 -0.61357349 2.3625686 4282925888
-0.66030359 -0.60067081 2.3627872 4287532682
-0.66300094 -0.63397104 2.3681183 4284900713
-0.69225889 -0.52563608 2.3681085 4282663486
-1.3962152 0.72216845 2.2516396 4282599240
-0.65815359 -0.62643421 2.4049304 4282465591
-0.68230438 -0.53523046 2.4079802 4282399798
-0.65276563 -0.65349889 2.4125533 4291020233
-0.67996526 -0.55612046 2.4103322 4283979087
-0.6533339 -0.63854355 2.4338307 4286018151
-0.64870292 -0.67478681 2.4509234 4291875797
-1.3784119 0.56172687 2.3463316 4289314509
-1.3468034 0.56509256 2.3618617 4288064443
-0.68335825 -0.49489784 2.4908965 4288386439
-0.66738856 -0.67524195 2.4988444 4291481040
-1.1615677 0.65447491 2.458703 4287735730
-0.68873227 -0.69652414 2.5223839 4290494145
-1.2795919 0.5610854 2.4458239 4286746265
-0.67822659 -0.67228925 2.5304327 4284966761
-0.65925419 -0.58941585 2.5349517 4282070577
-1.2191848 0.57570964 2.4642267 4287471022
-0.68971539 -0.68521994 2.533021 4291086025
-0.65532714 -0.62921679 2.5423269 4286809995
-1.2605914 0.55685836 2.4718456 4284179824
-0.66556168 -0.66164571 2.5551491 4292138713
-1.2587144 0.54810041 2.4799283 4289708752
-1.1907983 0.5763194 2.491359 4288853701
-0.70427352 -0.68104488 2.5696039 4291744211
-0.67270631 -0.50686896 2.5780582 4284374101
-1.2352526 0.5042119 2.5112238 4289117130
-0.67022485 -0.65618151 2.5815613 4291875541
-0.65873456 -0.62594146 2.5889418 4288191648
-1.1271516 0.6172536 2.5363684 4282465852
-1.1934419 0.56674165 2.5284355 4283782482
-1.2174363 0.56062979 2.5277591 4288392124
-0.71608061 -0.43353966 2.5888176 4283846985
-0.7119993 -0.43280774 2.6019046 4283451714
-1.2177081 0.79998094 2.5452352 4282729539
-1.0915171 0.70145148 2.5666938 4282335553
-0.65444487 -0.3032065 2.6257694 4284243803
-1.2126029 0.5144639 2.5628855 4284178528
-1.1908317 0.77041811 2.5718029 4282137401
-0.67144525 -0.56820035 2.6315053 4285953395
-1.057689 0.67283559 2.5996249 4283190603
-0.67520726 -0.58192164 2.639869 4285887085
-0.67124569 -0.49971274 2.6430163 4285821292
-0.65580964 -0.37451079 2.657275 4291743955
-0.6271255 -0.35815355 2.6633563 4289047474
-0.62341654 -0.33775789 2.6656609 4281807920
-0.65805656 -0.25867662 2.6654296 4287401090
-0.68464422 -0.57514185 2.66627 4286676343
-0.63744801 -0.37408504 2.6818995 4287402908
-0.6923058 -0.5696516 2.6777539 4288718250
-0.67178601 -0.44493327 2.6808095 4289638835
-1.1334686 0.78082854 2.6367531 4282004785
-0.67265624 -0.44960395 2.6959894 4285821289
-0.6791805 -0.22287105 2.697962 4287204482
-0.6977635 -0.51490259 2.7006981 4290493889
-0.66344774 -0.41641846 2.7103114 4289111977
-0.68022633 -0.40633202 2.7091393 4284768606
-1.0841811 0.27894413 2.6723497 4289111710
-0.69463694 -0.5266118 2.7090914 4290757319
-0.70815003 -0.54646593 2.7085497 4290691269
-0.68862742 -0.46277979 2.713536 4286215788
-0.67683822 -0.40502593 2.721683 4290296510
-0.66913712 -0.42429042 2.7241175 4285821030
-0.69710529 -0.52391511 2.7221894 4291020747
-0.68489653 -0.47023955 2.725049 4284899931
-0.72443855 -0.56216782 2.7221355 4290560454
-0.6835826 -0.45188716 2.7270174 4288125338
-0.69417894 -0.48232287 2.7298374 4287862682
-0.68613821 -0.41849381 2.7326546 4284834655
-0.68470031 -0.436396 2.733681 4284966495
-0.97908002 0.69937086 2.709614 4282662200
-0.70069981 -0.50878215 2.7363939 4289507511
-0.69487262 -0.42842692 2.7387373 4285689445
-0.69303048 -0.44192362 2.7409229 4288652714
-1.0335369 0.28319442 2.7161379 4281347886
-1.0459746 0.32499674 2.717942 4282400057
-0.64879054 -0.34786323 2.754703 4284768865
-1.0208615 0.35612842 2.727381 4282466107
-0.71857375 -0.51051933 2.7533755 4285360740
-0.71782935 -0.48470801 2.7614386 4288126114
-0.6687156 -0.35681403 2.767839 4287072914
-0.71168798 -0.47025755 2.7645419 4285229156
-0.73404849 -0.51880389 2.7650149 4290757577
-0.98990834 0.28391361 2.7460649 4282005301
-0.72661036 -0.50116783 2.7701612 4287731096
-0.92659223 0.70190775 2.7597163 4283320644
-0.70710158 -0.41806751 2.7759235 4285428087
-1.1157165 0.1769816 2.7431271 4282134569
-0.72546577 -0.4685033 2.7750151 4284900187
-0.66530824 -0.33716905 2.7808332 4286546567
-1.0290395 0.37383243 2.7547164 4282005043
-0.66472173 -0.32476008 2.7853658 4285361779
-1.1250024 0.1642599 2.7499831 4289111710
-0.71416914 -0.16233724 2.7884743 4286215274
-0.73805386 -0.46849611 2.7870414 4288060579
-0.74505222 -0.48475909 2.7887175 4288717995
-0.71913606 -0.43425462 2.794049 4284177238
-0.73696041 -0.4414759 2.7955325 4287205270
-0.67377174 -0.3359578 2.8014641 4283255369
-0.75159961 -0.43571571 2.8039088 4285163874
-0.7560541 -0.43854535 2.814822 4286019186
-0.73683351 -0.1393986 2.8198054 4283585360
-0.6848501 -0.32249647 2.8236787 4282465594
-0.76415974 -0.42888436 2.8231995 4285492589
-0.75243646 -0.12669373 2.8463702 4282597693
-0.83252031 0.24066447 2.8591855 4281872682
-0.75983298 -0.13285437 2.8642588 4285689187
-0.76953059 -0.13376471 2.8794086 4287531130
-0.86610949 0.14000237 2.8751426 4281017117
-0.77930182 0.69124424 2.8926346 4289576909
-0.75195122 0.74863368 2.8958607 4284838005
-0.82692033 0.83300394 2.893918 4282992968
-0.78426415 -0.12461425 2.8983755 4287400317
-0.81384957 0.16888563 2.912019 4281742643
-0.7989431 0.23853804 2.915339 4282663746
-0.72943926 0.75127774 2.9217529 4284772725
-0.77046037 0.71110058 2.9292598 4289313224
-0.80251449 -0.314735 2.9434998 4289113008
-0.701222 0.75698751 2.9564261 4286089362
-0.87773126 -0.031018566 2.9529145 4285625710
-0.81889284 -0.31999731 2.9565578 4289310385
-0.81682259 -0.30855301 2.9581969 4284440421
-0.71463859 0.72385252 2.9768906 4287932087
-0.76904839 0.15569438 2.976213 4286222490
-0.88444746 -0.015913494 2.9936228 4287005046
-0.88066089 -0.064205259 2.9963753 4282927173
-0.82647049 -0.23541118 2.99968 4281610026
-0.72958404 0.17791919 3.0059459 4286746773
-0.72937614 0.15958464 3.0071321 4290758864
-0.83632314 -0.24744248 3.0070193 4285691008
-0.78719503 0.21673526 3.0146339 4284443245
-0.84709173 -0.22976835 3.0220065 4282531128
-0.75617403 0.22851878 3.029855 4282401345
-0.77867639 0.23932615 3.0329783 4281743157
-0.67306668 0.77175653 3.0384202 4285365899
-0.86317539 -0.22203146 3.0417118 4282268214
-0.65140975 0.80076492 3.0471027 4286550434
-0.70601088 0.17343418 3.0546715 4285365115
-0.75401586 0.21312444 3.0631409 4283586391
-0.88963264 -0.22229825 3.0622582 4282202422
-0.71562284 0.11733625 3.076628 4291482329
-0.95684767 -0.080054134 3.0758784 4285887079
-0.89468944 -0.20463014 3.0773113 4285032560
-0.90690809 -0.20535222 3.086652 4283123786
-0.965249 -0.073106527 3.0889363 4281741355
-0.95437139 -0.07886602 3.0963495 4286083686
-0.67079389 0.14559527 3.1052413 4284575089
-0.98547006 -0.073955566 3.1059735 4281346596
-0.98245132 -0.0085166795 3.1121647 4287530873
-0.61371565 0.79292905 3.1367097 4286417049
-0.66458052 0.13062277 3.1412876 4288327356
-0.65152091 0.76206446 3.1452677 4287208362
-0.63630533 0.77417767 3.1514432 4290758607
-0.61468953 0.78557265 3.172967 4289116615
-0.69598567 0.11837476 3.212271 4285959322
-0.69246387 0.17269199 3.2166054 4284444016
-0.70160544 0.13770626 3.235713 4286156956
-0.70728397 0.17599942 3.2443869 4285035893
-0.52391636 0.79879379 3.272248 4285891729
-1.1863327 -0.025105948 3.3004587 4282663228
-1.1902555 -0.012675076 3.3094485 4281807404
-1.1914459 -0.041199982 3.3167689 4286610546
-1.2075064 -0.026498435 3.3434157 4286413423
-1.2218254 -0.010110726 3.3554373 4284769629
-1.2303342 -0.0010807428 3.3821037 4290494143
-1.23757 -0.001214223 3.3956094 4287071095
-1.2644268 0.024283901 3.4331079 4289704884
-1.2729549 0.028921805 3.4475136 4289375917
-1.2789456 0.022185793 3.461072 4291415761
-1.401455 0.18388584 3.7294471 4283913550
-1.4131478 0.19650169 3.7425911 4287400573
-1.3864037 0.17557274 3.7396293 4282070835
-1.4601365 0.21900174 3.7490027 4282992192
-1.4770582 0.23068017 3.7586432 4287466109
-1.3928647 0.18382919 3.7519121 4282530613
-1.4487462 0.21295407 3.7590008 4283979084
-1.3976996 0.1944498 3.7631354 4287400576
-1.443418 0.21713485 3.7698188 4287597438
-1.4788581 0.23058952 3.7803068 4286478701
-1.4674666 0.22604613 3.780767 4284570964
-1.4315193 0.21134976 3.777457 4283913034
-1.4055488 0.20564494 3.7967436 4282135855
-1.4184147 0.21463969 3.8223243 4283452742
-1.3707471 0.19976872 3.8253849 4285887083
-1.4151567 0.22306545 3.8349619 4287465596
-1.3723298 0.20755599 3.8421373 4286610806
-1.3962839 0.21600485 3.8481369 4283584328
-1.4383252 0.23801611 3.8595123 4287663489
-1.4296086 0.22889303 3.8617125 4288188803
-1.4989181 0.79763871 2.1401439 4283257430
-1.4924557 0.57316905 2.2034609 4290890709
-0.68078887 -0.55619204 2.4101934 4283979087
-0.66405839 -0.66816032 2.5013797 4287072909
-0.67829692 -0.69684023 2.501972 4285032550
-0.65741777 -0.62087524 2.5884647 4285360481
-0.66436803 -0.55668741 2.6041887 4287664788
-0.6606487 -0.59759915 2.6059046 4284965981
-0.71276879 -0.43292752 2.6018083 4283451714
-0.65601695 -0.37466013 2.6572497 4291743955
-0.67759895 -0.52772564 2.6596012 4282991935
-0.62355965 -0.33441684 2.6725702 4284966507
-0.68539697 -0.57532835 2.6661851 4286676343
-0.63353664 -0.36116725 2.6856492 4289178803
-0.68680257 -0.53169042 2.690136 4287467408
-0.64815664 -0.38007802 2.7056506 4283650642
-0.63194704 -0.33790138 2.7254882 4288717995
-0.70444036 -0.17209904 2.7290077 4283650893
-0.6919837 -0.48195621 2.7300487 4287862682
-0.69418138 -0.43177739 2.7427499 4288586147
-0.7142505 -0.13805091 2.7740908 4283585362
-0.70706463 -0.4182651 2.775923 4285428087
-0.72626698 -0.46895686 2.7749403 4284900187
-0.67295694 -0.33506086 2.7978444 4283255626
-0.76210541 -0.43954325 2.8143644 4286019186
-0.68415552 -0.32237387 2.8237312 4282465594
-0.7604394 -0.11674121 2.8537092 4286218104
-0.74948782 0.74838811 2.8959973 4284838005
-0.78351384 -0.12450615 2.8984177 4287400317
-0.8234694 -0.3092581 2.965831 4283716699
-0.83510596 -0.24728124 3.0070574 4285691008
-0.84724176 -0.22979951 3.0220022 4282531128
-0.65026957 0.80800843 3.0391948 4290431699
-0.86272329 -0.2220113 3.0417221 4282268214
-0.74547184 0.21294314 3.063298 4283586391
-0.89506173 -0.20463564 3.0773058 4285032560
-0.90646577 -0.20539501 3.0866573 4283123786
-0.95493412 -0.07890591 3.0963433 4286083686
-0.98154885 -0.0084973723 3.1121709 4287530873
-0.63795298 0.77428818 3.1514449 4290758607
-0.72030813 0.16713972 3.2735045 4284376690
-1.1862732 -0.025232289 3.300457 4282663228
-1.1931497 -0.013604979 3.3095484 4281807404
-1.192601 -0.041398138 3.3168101 4286610546
-1.2089899 -0.026694428 3.3434768 4286413423
-1.2184439 -0.013163921 3.3627162 4289178025
-1.2295676 -0.0010644454 3.3820662 4290494143
-1.2392046 -0.0012931849 3.3956931 4287071095
-1.265268 0.019783948 3.435782 4286282609
-1.2809228 0.021938313 3.4612 4291415761
-1.4487002 0.21286876 3.758996 4283979084
-1.3687135 0.19969441 3.825109 4285887083
-0.77120781 -0.48757902 2.2046325 4283914069
-1.5113829 0.74539191 2.1183498 4287143082
-1.4733254 0.72010159 2.1515334 4284772981
-0.71443987 -0.52976382 2.3286176 4282532160
-0.6716662 -0.50676322 2.5781941 4284374101
-0.66287804 -0.5980531 2.605623 4284965981
-0.66604942 -0.57575411 2.6179786 4286875014
-0.68204772 -0.59004331 2.6491745 4289244336
-0.76025695 -0.11678573 2.8537209 4286218104
-0.69487023 0.15985051 3.0660059 4285102457
-0.68095571 -0.49380425 2.4912791 4288386439
-0.72708029 0.75092727 2.9218731 4284772725
-1.6040362 0.74156833 2.0591924 4282927430
-1.5028126 0.5511232 2.2028515 4284704371
-1.4707074 0.56508696 2.2968526 4288393152
-0.69217217 -0.69567508 2.5332911 4290559939
-1.1438631 0.63010979 2.4793818 4284375390
-1.1837484 0.57994401 2.5231521 4283978573
-0.70666337 -0.17750722 2.7125328 4284703578
-0.70673364 -0.15943065 2.741014 4284111443
-1.0675091 0.29260376 2.6649256 4289177502
-0.71108741 -0.52249825 2.744391 4289441975
-0.67202771 -0.37547311 2.7677119 4290954439
-0.68458849 -0.39093751 2.7731187 4286677900
-0.74617678 -0.51934075 2.7766039 4287073169
-0.99718314 0.28855836 2.7400823 4285166708
-0.74051404 -0.44562787 2.7980297 4284966498
-0.75410509 -0.4617334 2.8057191 4285427051
-0.68119848 -0.31076765 2.8268983 4282663234
-0.74861711 -0.1400902 2.8189297 4283453775
-0.77884948 0.7118364 2.928838 4288985030
-0.7513181 0.19649652 2.9754028 4284641909
-0.85286164 -0.08715336 2.9795532 4281675819
-0.90243602 -0.017334176 2.9930146 4286677368
-0.79567373 0.21810602 3.0143969 4284706673
-0.7499876 0.2276468 3.0300078 4282203450
-0.87141538 -0.24863398 3.0487611 4286019971
-0.96809942 -0.04789453 3.0988245 4287005303
-0.95614702 -0.022877328 3.1016154 4283649349
-0.95354849 -0.073115401 3.1062391 4281214752
-0.60431492 0.78373921 3.172893 4289313480
-0.98023909 0.021829195 3.119596 4283189313
-0.96477145 0.0061191046 3.121923 4282597179
-0.71024442 0.73950118 3.1911197 4290168274
-0.68456161 0.17218621 3.2164683 4284312688
-0.69399798 0.13720769 3.2355478 4286091163
-0.71228039 0.15996662 3.2701039 4284378228
-0.72378457 0.16482857 3.298645 4289972178
-1.1733781 -0.027095933 3.3150034 4287928213
-1.4032117 0.19681509 3.741421 4287334780
-1.4547998 0.23048648 3.7559681 4287466365
-1.4221627 0.21702738 3.8079822 4285953388
-1.405529 0.22950463 3.8583043 4288583818
-1.4157306 0.24095604 3.8626394 4282728254
-1.4284393 0.25505677 3.8722336 4283057726
-1.4199667 0.23777799 3.8827214 4288780940
-0.75743401 -0.4836691 2.7955036 4286018930
-0.74283755 -0.13960138 2.8201969 4283453775
-0.87888271 -0.23258597 3.0520823 4281873198
-0.77818751 -0.46151769 2.1863806 4284110931
-0.79541504 -0.45904797 2.1676068 4290423186
-0.73762 -0.55882794 2.2178795 4290291342
-0.75190395 -0.52421409 2.2402394 4286019440
-0.71634704 -0.53850877 2.313587 4285294172
-0.65690798 -0.63140601 2.3699386 4284637284
-0.65874761 -0.66110837 2.4852216 4290165180
-1.1787627 0.63343489 2.4698541 4284836197
-1.2224876 0.58279175 2.5130177 4283977542
-0.67001998 -0.39244691 2.7601576 4291085768
-0.68694723 -0.40415162 2.7655454 4290428611
-0.70984727 -0.45829001 2.7753601 4289179059
-0.72626382 -0.48752889 2.779443 4285887084
-0.71399146 -0.41896638 2.7859125 4290427839
-0.72848386 -0.42931315 2.7871742 4288586150
-0.96702772 0.71056485 2.7173865 4286021757
-1.0418531 0.35716987 2.7215471 4282597693
-1.1160804 0.19174327 2.7183363 4289177502
-0.75570971 0.75520515 2.8782945 4287670454
-0.75173807 0.76860017 2.886801 4283586393
-0.70175195 0.748936 2.9379413 4287801527
-0.81776458 0.16012493 2.9167309 4282071093
-0.81249899 -0.3437832 2.9447777 4286546045
-0.68348825 0.74254131 3.0056231 4285825938
-0.8213461 -0.33385709 2.9519114 4289507251
-0.82841378 -0.34570083 2.9530451 4289968061
-0.63158655 0.81115353 3.0400405 4285694604
-0.68820673 0.72859168 3.031467 4291417052
-0.86150885 -0.087134846 2.9780312 4281872941
-0.82256961 -0.25779137 2.9930742 4286020743
-0.70773292 0.19004633 3.0385194 4288129978
-0.59403259 0.80590963 3.1137853 4285035903
-0.84757149 -0.21344304 3.0280111 4283979098
-0.86033159 -0.24070702 3.0311086 4283189837
-0.69349331 0.73559493 3.0927665 4283189831
-0.65639478 0.14443026 3.1064186 4284772467
-0.69321001 0.7142185 3.1050286 4283582269
-0.64944685 0.13909608 3.1247392 4284641137
-0.63248235 0.75712186 3.1467769 4287010726
-0.6220035 0.77046531 3.1530178 4289444036
-0.65174794 0.1209389 3.1424854 4285430662
-0.58032221 0.78961676 3.1776931 4289641159
-0.8998791 -0.18825331 3.0895016 4285164145
-0.68115467 0.73576885 3.1658666 4290102482
-0.90848517 -0.18036978 3.0954461 4284638059
-0.98233789 -0.048578624 3.0967457 4287136888
-0.53435308 0.79461259 3.2311833 4289116871
-0.69586241 0.73738551 3.1930318 4289970896
-0.97872365 -0.026347736 3.109118 4281675047
-0.98226714 0.005142177 3.119451 4282662972
-0.99021155 0.015450115 3.1181982 4286676079
-1.0035452 0.027869513 3.1199546 4285953129
-0.68148774 0.1173903 3.2129433 4285696150
-0.99830222 0.021033414 3.1285317 4285491807
-0.67674309 0.17147967 3.2174582 4284246638
-0.70583695 0.16589375 3.2740324 4284507764
-1.1946856 -0.034839313 3.2877498 4283649864
-1.1940334 -0.0079682563 3.2927732 4286284172
-1.2094026 -0.028491832 3.3116279 4287994007
-1.2823631 0.014993298 3.4236445 4286808438
-1.4071302 0.18550816 3.7846522 4284505688
-0.67486888 -0.47898763 2.6970117 4285557345
-1.0432929 -0.51207268 2.585336 4287072391
-1.0293272 0.048854396 2.9958332 4281874227
-1.3913318 -0.044538382 2.8949409 4282267955
-1.3915541 -0.032526866 2.9019735 4286807924
-1.4125868 0.39815587 2.6063223 4286682277
-1.4056129 0.45592639 2.5567417 4285695126
-1.3170115 -0.11564451 2.7516935 4287399030
-1.3093568 -0.094893277 2.7738106 4282267956
-1.30398 -0.070368461 2.7557952 4287925888
-1.1893071 0.20723012 2.868103 4289243037
-1.1692224 0.21616365 2.8590419 4289243037
-1.1640371 0.13936026 2.807379 4289243037
-1.1287783 0.27434057 2.7113214 4281281836
-1.0763837 -0.38869196 2.4294069 4284967279
-1.0625933 -0.29610938 2.4469121 4282862411
-1.0336975 -0.52065438 2.5734644 4289968058
-1.0624235 0.34898964 2.7506661 4284442987
-1.0159167 0.035717234 2.9905365 4281215270
-0.99639845 -0.51238251 2.4808488 4291415504
-0.99747998 -0.48273328 2.4670036 4290100417
-0.97882539 0.062665045 2.9662497 4281938476
-0.98680133 -0.48506016 2.4534683 4287203458
-0.98702198 -0.46870476 2.4480138 4291087311
-0.97480971 -0.47454038 2.438422 4287072641
-0.96684426 -0.51311308 2.446274 4287401609
-0.94289839 0.11623032 2.9190984 4283520080
-0.96034008 -0.34949595 2.3879721 4290033849
-0.94405746 -0.53320765 2.4289534 4285626999
-0.93652654 -0.60369253 2.4626844 4284835946
-0.94562036 -0.47095644 2.3992124 4290100414
-0.94583744 -0.35603395 2.3884532 4287597697
-0.92020255 -0.50587004 2.3773432 4289309608
-0.91409349 -0.51553041 2.3664482 4289969086
-0.82743895 -0.56599349 2.2522848 4285890683
-0.82215935 -0.53186774 2.2498336 4287401866
-0.81610888 -0.57980233 2.2382479 4283387465
-0.81722939 -0.51450139 2.2347176 4286878100
-0.79319978 -0.60843503 2.2405729 4283452754
-2.0686023 0.62511414 2.4166958 4289050821
-2.0509436 0.63064808 2.4074001 4284179557
-2.0475214 0.65638667 2.4195554 4283718493
-2.0389705 0.62832838 2.4088678 4283981922
-2.0235553 0.63457274 2.4039559 4283785058
-1.5588717 0.75171453 2.138694 4287143597
-1.3992907 -0.041783456 2.9026074 4282728244
-1.3919061 -0.032680519 2.9005737 4286939509
-1.3917021 -0.044267308 2.8935604 4282465335
-1.4639957 0.44242826 2.5374353 4284245621
-1.3834015 -0.099685192 2.8785896 4282202417
-1.4564978 0.45877996 2.5327253 4286879141
-1.382069 -0.072743528 2.8715456 4290230454
-1.3804787 -0.031500958 2.8868191 4287136889
-1.4725535 0.53829324 2.396024 4291349715
-1.5072565 0.73798269 2.1962233 4284442988
-1.4441228 0.44570488 2.54723 4285956501
-1.4574648 0.53555673 2.4084623 4287930288
-1.4616858 0.56733996 2.348423 4286814120
-1.4072133 0.45528913 2.5509038 4285629333
