# .PCD v0.7 - Point Cloud Data file format
VERSION 0.7
FIELDS x y z rgb
SIZE 4 4 4 4
TYPE F F F U
COUNT 1 1 1 1
WIDTH 1085
HEIGHT 1
VIEWPOINT 0 0 0 1 0 0 0
POINTS 1085
DATA ascii
0.19806761 -0.066755995 3.5426381 4286351234
0.19894116 -0.069506779 3.5419254 4282926144
0.20288241 -0.075558811 3.5427778 4285359966
0.20174123 -0.069294415 3.5465708 4282005559
0.20595811 -0.07156229 3.5484316 4281873200
0.21004212 -0.083844818 3.5483441 4290559683
0.19137271 0.12129872 3.617784 4282401089
0.21348876 -0.079491563 3.5509264 4287005566
0.21803746 -0.083461732 3.5584991 4284307279
0.21826343 -0.084920846 3.559756 4286215530
0.21848503 -0.086225279 3.5607708 4289244335
0.21726163 -0.064500645 3.569813 4288320646
0.21891323 -0.070903562 3.5699017 4283912007
0.22308606 -0.079294473 3.5734305 4286412652
0.22392732 -0.083701663 3.57394 4286744202
0.22360177 -0.068487152 3.577235 4285425502
0.226293 -0.063246794 3.5844941 4288124047
0.23618305 -0.043018583 3.5879843 4281676335
0.23714092 0.10587754 3.6248748 4286748322
0.18150038 0.10200215 3.6033809 4283320900
0.047655419 0.1223257 3.5603943 4284970101
0.0494099 0.11439686 3.5612643 4287801784
0.085689619 0.12452522 3.5642843 4281808960
0.083986416 0.13660531 3.5669336 4283981667
0.090121724 0.11550897 3.5662794 4287736506
0.095431514 0.12118081 3.5651162 4286485409
0.10232826 0.1139272 3.5696814 4286748581
0.10738551 0.08955913 3.588048 4289904588
0.11822342 0.088324815 3.5886505 4284971401
0.18608399 -0.060008593 3.5327716 4289896844
0.18673092 -0.062347662 3.5322196 4290225806
0.11554607 0.083928481 3.5991611 4287073433
0.18674232 -0.064520314 3.5330355 4290225549
0.18922949 -0.068235151 3.5359023 4283187769
0.18990751 -0.06297908 3.5376639 4283847763
0.18859647 -0.059274044 3.5409546 4282925627
0.13637064 0.086607695 3.5921316 4290759893
0.1249442 0.079817303 3.6043978 4287667116
0.1928065 -0.071862102 3.5392954 4284704870
0.19170119 -0.076256774 3.5408816 4284441702
0.19275309 -0.073720001 3.5399129 4285758327
0.19327152 -0.069664329 3.5396848 4284178786
0.12256209 0.07680627 3.6094587 4287732391
0.19357136 -0.065322533 3.5406003 4286152313
0.19451945 -0.070744395 3.539696 4284771948
0.19330396 -0.077911988 3.5416555 4282530874
0.1942794 -0.068407044 3.54092 4286085489
0.19541769 -0.072215475 3.5404088 4284442474
0.1963387 -0.079970829 3.540345 4283584596
0.19732033 -0.077185094 3.5403416 4286152064
0.19862354 -0.078620866 3.5405576 4281938994
0.19876482 -0.075917982 3.5407128 4282927173
0.19672038 -0.066947222 3.5439479 4286351234
0.19756852 -0.069747075 3.5432584 4283123522
0.20068955 -0.075964808 3.541853 4282662972
0.2006823 -0.081336565 3.5424752 4286283135
0.20018035 -0.073525026 3.5438938 4285690217
0.20143956 -0.078720585 3.542712 4284834396
0.19469631 -0.089612737 3.5493548 4287204243
0.20147362 -0.07583499 3.5441608 4285491809
0.20219903 -0.083039217 3.5438464 4285822074
0.20050268 -0.072337501 3.5458641 4284704355
0.16935138 -0.045623869 3.5768309 4282860093
0.19948654 -0.06802503 3.5472946 4284906362
0.20154011 -0.085115083 3.5460691 4290297282
0.20038393 -0.069498606 3.5479145 4281939510
0.20357242 -0.081371255 3.5446966 4281873198
0.19744624 -0.064100921 3.5510087 4282797390
0.20095585 -0.087871075 3.5474532 4286940813
0.20206667 -0.073618166 3.546504 4281741869
0.20415817 -0.08348015 3.5454855 4288980907
0.20257267 -0.071768194 3.5479167 4282070064
0.20070925 -0.06523218 3.550005 4287335555
0.20173942 -0.068771459 3.5491862 4282465594
0.20563455 -0.080001265 3.5467551 4282070832
0.20715883 -0.083125547 3.5476511 4288454822
0.14373972 0.069278948 3.6131005 4286021778
0.20740353 -0.07765767 3.5481222 4284833619
0.20161763 -0.063267373 3.5542297 4284836198
0.20815443 -0.079977177 3.5481789 4287471014
0.15470904 0.077637263 3.6033781 4288920007
0.20453335 -0.065894917 3.5521605 4287006590
0.16061589 0.090328582 3.5978389 4283386694
0.2085495 -0.082098834 3.5484807 4281938990
0.15680359 0.087130949 3.6023896 4290758866
0.20890315 -0.084105112 3.5494962 4291348940
0.21023455 -0.082752235 3.5495765 4282399800
0.21115246 -0.080736622 3.5503016 4282596924
0.15866841 0.085105792 3.6053407 4282994254
0.21085984 -0.083851859 3.5514402 4288650911
0.21064773 -0.079436935 3.5517397 4285096544
0.21225654 -0.083002277 3.5521085 4290559423
0.2113106 -0.086221315 3.5534182 4286019194
0.16869213 0.094391428 3.5991075 4282728765
0.20916866 -0.067402601 3.5571802 4287861383
0.21099406 -0.088851556 3.5553246 4287796889
0.21174048 -0.075538419 3.5550139 4284307276
0.21268083 -0.083999559 3.554034 4289769394
0.21391878 -0.082751818 3.5543268 4281872939
0.15458822 0.056378342 3.6175835 4289774800
0.15537393 0.057930171 3.6168087 4288064954
0.21403851 -0.084238634 3.5557768 4284110420
0.21114241 -0.067905679 3.558974 4287860610
0.21452846 -0.082182914 3.556591 4284439121
0.21538876 -0.085479282 3.5575984 4288651940
0.21211946 -0.076950893 3.5632832 4281807403
0.17395198 0.091069758 3.6063428 4285100143
0.21661466 -0.083752006 3.5600028 4283583556
0.21690939 -0.085192233 3.561193 4286215530
0.21668144 -0.080986105 3.5617878 4284176213
0.21707293 -0.086527377 3.5622721 4289902009
0.2176291 -0.081808358 3.5641937 4285229414
0.21842144 -0.082972832 3.5660284 4283781707
0.2169936 -0.070582911 3.5690217 4283321671
0.21898316 -0.082265951 3.5677173 4283386691
0.21924451 -0.086106382 3.5682807 4290297025
0.21778935 -0.071102694 3.5711229 4283188285
0.18569276 0.10771117 3.609735 4283257427
0.21671559 -0.093292966 3.5744085 4288981681
0.22032009 -0.086291395 3.5714328 4291020489
0.22131886 -0.084131375 3.5711532 4285228895
0.21736076 -0.092395537 3.5757003 4285625464
0.22053695 -0.074248902 3.5736165 4285096795
0.18180618 0.046225663 3.6172707 4281479214
0.22048418 -0.087297127 3.5737555 4291809234
0.22149535 -0.080677748 3.5739233 4282531127
0.21871291 -0.090989903 3.5770605 4290822597
0.21780893 -0.092479825 3.5783772 4287797152
0.22183833 -0.08629062 3.5742149 4286086012
0.22121327 -0.072739877 3.5751207 4282399799
0.18573165 0.043490659 3.6156566 4283584590
0.18408395 0.041537262 3.6177189 4283453264
0.19180098 0.10217369 3.6106148 4282796619
0.22199997 -0.076650165 3.5763233 4286083688
0.17847236 0.030670596 3.6257575 4289111709
0.22067572 -0.08936663 3.5793953 4290230975
0.22242893 -0.068706863 3.5785437 4284504659
0.18894017 0.046659935 3.6173472 4281677622
0.18977217 0.044926465 3.6194034 4284509550
0.17557959 0.023671273 3.6354883 4289111709
0.19191152 0.056819707 3.6178608 4282596922
0.21989821 -0.055959586 3.5855474 4284372815
0.18115294 0.03313126 3.6311467 4281870880
0.18028057 0.031887099 3.6330504 4289111710
0.22071077 -0.055812847 3.587441 4283124294
0.22494304 -0.074855745 3.5831032 4284637016
0.22555849 -0.037701726 3.5842376 4288980904
0.22557683 -0.04484573 3.5850976 4287598993
0.2249797 -0.080879942 3.5868633 4285492328
0.22643088 -0.041362688 3.5860224 4284243292
0.22685675 -0.045460317 3.5864315 4283716171
0.22532012 -0.079589777 3.5879433 4288915629
0.22917785 -0.042173013 3.5855038 4288058249
0.22823194 -0.036842417 3.5867369 4283190602
0.22538869 -0.07941249 3.5900805 4285557602
0.22974919 -0.039007131 3.5853872 4287926921
0.22848593 -0.046135593 3.5868206 4283715917
0.2298367 -0.044499915 3.585541 4289442745
0.22746179 -0.050306428 3.588326 4291217610
0.22692205 -0.066560425 3.5890155 4288322460
0.22853799 -0.048188791 3.5876019 4288257444
0.22663079 -0.073525429 3.5905216 4289112492
0.226374 -0.052312993 3.5911908 4284306250
0.23161864 -0.040225513 3.5854969 4282400573
0.23042516 -0.047115307 3.5869646 4290494919
0.22648254 -0.074749 3.59196 4286018411
0.22753984 -0.070391051 3.5912399 4284505171
0.23189892 -0.036979225 3.5868366 4282268472
0.20791338 0.10480706 3.6163161 4282794816
0.23313111 -0.045057423 3.5860379 4283519576
0.23066089 -0.033709273 3.5890198 4287926661
0.22759993 -0.067873962 3.5925853 4287203463
0.22833329 -0.063010246 3.5923772 4284176724
0.22871555 -0.060337648 3.5922384 4289375664
0.19610049 0.062712759 3.6324658 4289111709
0.23095874 -0.030675298 3.5923786 4287664004
0.2297077 -0.060590368 3.5938158 4286544497
0.23386951 -0.047115561 3.5898762 4289836474
0.19633298 0.061724156 3.6354449 4283979085
0.23523882 -0.043181449 3.5890949 4281676078
0.22936846 -0.062814862 3.5963368 4285557860
0.23000991 -0.058664653 3.5958974 4285755752
0.22710578 -0.069451772 3.5993457 4290165440
0.23222521 -0.050070405 3.5952299 4289376184
0.19946544 0.058035735 3.6359234 4289111710
0.23293161 -0.028730283 3.5964811 4281676076
0.23187266 -0.023497878 3.599004 4287794561
0.23123384 -0.052407905 3.5998607 4288520875
0.23286125 -0.025511619 3.598438 4286544496
0.22958125 -0.017691478 3.6030078 4282467136
0.22838548 -0.016160728 3.6051702 4282598464
0.23699966 -0.042732876 3.5958099 4282531902
0.21068451 0.030226 3.6281948 4280688927
0.23495884 -0.046651412 3.5985315 4288717996
0.23742621 -0.043255839 3.5973682 4288257701
0.20610189 0.054452151 3.636409 4281543974
0.23149189 -0.017564921 3.6115108 4282860866
0.23158309 -0.015422896 3.6115148 4287991424
0.21078996 0.050554339 3.6382461 4289111710
0.22884056 -0.011722906 3.6161976 4286874489
0.23121822 -0.014723247 3.6141846 4283190345
0.23640461 -0.042668838 3.6087992 4283387214
0.23083289 -0.016151458 3.6159317 4286547582
0.23033653 -0.01473326 3.6183128 4286808438
0.22985089 -0.012961693 3.6196506 4282531386
0.22867304 0.10042143 3.624299 4283256397
0.22950709 -0.012567172 3.6240747 4287596665
0.22593299 0.026795097 3.629828 4281608226
0.22892626 -0.012439122 3.6275942 4287268473
0.22050726 0.045917895 3.6399755 4289111966
0.2282766 0.032261148 3.6306179 4282336584
0.2195314 0.0019994986 3.6433094 4282794554
0.22442462 0.0481264 3.6419406 4289046173
0.2204953 0.0022300526 3.6471741 4287137917
0.23502266 0.032599904 3.6336882 4285100658
0.2385347 0.032532666 3.6355712 4284510068
0.23554395 0.03983124 3.640559 4283849307
0.23741953 0.023148237 3.6385646 4290102223
0.23959041 0.028330967 3.637634 4289445835
0.24797535 0.034284417 3.6289334 4283851623
0.24274537 0.026578387 3.6386838 4286682535
0.24659318 0.027910292 3.6410146 4288524474
0.25479963 0.11185648 3.6380985 4285629070
0.25283745 0.0257135 3.6448205 4287538093
0.25337636 0.029284043 3.6452508 4284376937
0.24920055 0.01674352 3.6518147 4286088859
0.26145571 0.1185977 3.6377912 4291022550
0.2582593 0.10968979 3.649112 4290955987
0.25819761 0.02390415 3.6498089 4284706930
0.25881025 0.021311661 3.6522141 4285167232
0.31984204 0.12197626 3.6907277 4291744987
0.049086053 0.1165293 3.560447 4283981666
0.050154064 0.11806103 3.5601199 4287999161
0.053957082 0.1157576 3.5602689 4287275182
0.059189945 0.11664645 3.5597477 4287406768
0.061496899 0.11234241 3.5604661 4287801782
0.076152347 0.12337685 3.5637679 4283058247
0.081141546 0.12298188 3.5635808 4283126361
0.084011309 0.12080328 3.564219 4287867063
0.084899038 0.11639216 3.5644059 4283784808
0.085920274 0.12448753 3.5640967 4281808960
0.08874011 0.12495004 3.564219 4287670461
0.089390256 0.12055156 3.5642102 4287275441
0.089511514 0.11893857 3.5650108 4284575870
0.090752766 0.11537983 3.5657613 4287736506
0.092238836 0.1165581 3.5657876 4283258467
0.091844425 0.11367266 3.5664904 4285365133
0.093062468 0.11967733 3.5655639 4284575602
0.091331191 0.10807978 3.5673318 4283389530
0.083142705 0.089806102 3.5741613 4289051849
0.091653265 0.10323603 3.5677338 4286288544
0.09488178 0.12129465 3.5655713 4286485409
0.094929919 0.11885068 3.5664043 4284311916
0.092384852 0.098831885 3.5683889 4284576118
0.095803693 0.11508934 3.5666337 4287143597
0.094889 0.11028705 3.567858 4286617768
0.095369399 0.10443075 3.5685971 4284312436
0.096317448 0.10841008 3.5681026 4287143854
0.098960936 0.11134722 3.5678608 4287538353
0.099829949 0.11896841 3.568475 4282862412
0.10157823 0.11282323 3.5683653 4287340972
0.10250333 0.11389399 3.5695336 4286748581
0.10041049 0.098251298 3.5712247 4284903551
0.10276242 0.1076666 3.5696745 4284574831
0.10548025 0.11376604 3.5705371 4287604921
0.10282679 0.094663754 3.5727549 4288064183
0.10690331 0.11476589 3.5712776 4285958805
0.10344578 0.092877463 3.5742002 4285430409
0.10867215 0.10187942 3.5732794 4284707197
0.10921037 0.098078482 3.5737493 4285629584
0.10946469 0.10023026 3.5736578 4285826962
0.11303493 0.09661486 3.5759764 4286485417
0.11468543 0.11121877 3.5750074 4282400833
0.11833728 0.11102094 3.5773568 4282401347
0.11906457 0.10120787 3.5772235 4285300357
0.10722963 0.089570716 3.588187 4289904588
0.11436597 0.089400791 3.5889239 4283653478
0.13098794 0.098554574 3.5822577 4285891218
0.12669547 0.12021531 3.5888913 4283059533
0.13064128 0.088430159 3.5886819 4288590788
0.18990427 -0.067112267 3.5353618 4289308586
0.14061511 0.10077775 3.5850866 4285101431
0.15044163 0.098682187 3.5879452 4288853954
0.19958556 -0.075503372 3.5414286 4286348145
0.14789887 0.086147718 3.593029 4289115843
0.15279514 0.10026708 3.5888765 4284904821
0.12897535 0.073844619 3.6123483 4287011243
0.15536387 0.10046206 3.5896719 4284707443
0.14643608 0.11654131 3.5991137 4282137399
0.13530214 0.070357241 3.6127636 4285759121
0.20068218 -0.064956665 3.5504408 4287138948
0.14355987 0.069311611 3.6132817 4286021778
0.15461609 0.077550635 3.6034725 4288920007
0.15518425 0.08565186 3.602993 4284312437
0.15843694 0.12054031 3.6050971 4282598213
0.16728017 0.096153967 3.5965803 4282597694
0.15406805 0.069654889 3.6107607 4283982438
0.2108603 -0.079399191 3.5515223 4285096544
0.16002847 0.11836003 3.6059883 4284180329
0.15869509 0.080256045 3.6072919 4284113250
0.15430067 0.062366493 3.6138954 4288130750
0.15565954 0.063955754 3.6131589 4287867579
0.15817197 0.072141826 3.6111143 4284048488
0.1632317 0.11623708 3.6070235 4281742900
0.2125283 -0.078691155 3.5547669 4285228892
0.21257034 -0.087766528 3.556304 4291019975
0.21562301 -0.083245993 3.5570796 4282596920
0.17525831 0.10597698 3.6009498 4282138173
0.17115359 0.11088136 3.6056392 4282729794
0.1748797 0.094040357 3.6053884 4282794042
0.17495978 0.091523334 3.6083062 4285232500
0.21752213 -0.083353393 3.5629895 4289046185
0.18140985 0.10199805 3.6034784 4283321157
0.21766178 -0.081802912 3.5641589 4285229414
0.21848024 -0.082962297 3.5659649 4283781707
0.21675454 -0.064632557 3.5703578 4288451975
0.21995126 -0.08483699 3.5682597 4288849577
0.1916054 0.10223079 3.610832 4282796619
0.18884549 0.046675541 3.6174533 4281677622
0.18931833 0.052046597 3.6177361 4283189057
0.1913716 0.12130844 3.617785 4282532931
0.197606 0.10490523 3.6133966 4282333749
0.22086009 -0.055774868 3.5872722 4283124294
0.22496444 -0.074876308 3.5830779 4284637016
0.19732711 0.04630208 3.6183548 4281939508
0.22694443 -0.066558555 3.5889895 4288322460
0.23054487 -0.033684649 3.5891562 4287926661
0.2284313 -0.06229344 3.5923338 4289310131
0.22940432 -0.060656361 3.5941715 4286544497
0.22938889 -0.054241739 3.5945251 4287664528
0.22901073 -0.061924014 3.5955639 4290297026
0.19633357 0.061755355 3.6354439 4283979085
0.23119636 -0.055353887 3.5947907 4290427578
0.23570839 -0.042716071 3.5899038 4284571749
0.23707339 -0.042750832 3.5957201 4282531902
0.22894153 0.1222996 3.6279435 4282598468
0.23619421 0.1135513 3.623811 4282928723
0.23687865 0.10594346 3.6252093 4286814115
0.23799029 0.11252919 3.6240346 4287341230
0.23813771 0.10775747 3.6243198 4288853184
0.2411155 0.10863494 3.625793 4284772212
0.24504226 0.11057556 3.6277742 4287867319
0.24777469 0.11115099 3.6295788 4285957776
0.2420146 0.033812925 3.6387439 4283060567
0.24285798 0.026593834 3.6385343 4286682535
0.25006542 0.11422022 3.6310599 4288853184
0.2451295 0.02587834 3.6403155 4289248712
0.24573605 0.028224535 3.6402452 4288656835
0.25082862 0.10958987 3.6355379 4285825938
0.24687572 0.031445507 3.6417449 4288392893
0.25396246 0.11222984 3.6369569 4285035902
0.25625485 0.11286055 3.6383557 4285234313
0.25177851 0.024688181 3.6441765 4288853185
0.25977516 0.12476026 3.6365745 4286614672
0.25938666 0.11898829 3.637084 4285365898
0.25587913 0.10954633 3.6428173 4287929512
0.25932029 0.11689616 3.6385593 4286616226
0.26132804 0.11868012 3.6379671 4291022550
0.26186121 0.12220788 3.6378615 4284641404
0.2547524 0.02254341 3.6473129 4286288803
0.26476824 0.12342878 3.6389441 4289049272
0.2582846 0.10967821 3.6490765 4290955987
0.25819421 0.023904793 3.6498137 4284706930
0.2680327 0.12353252 3.6407809 4286220427
0.26841226 0.11789549 3.6445181 4284772732
0.25729671 0.10746208 3.6605387 4283516991
0.26480231 0.11137466 3.651118 4287208105
0.27128088 0.11871744 3.6466737 4286880426
0.27455747 0.11970257 3.6479368 4285891222
0.27554315 0.12125823 3.6473682 4291153367
0.28282538 0.118238 3.6540864 4287732133
0.28498027 0.11866133 3.6548781 4286811289
0.2840054 0.11568777 3.657805 4283785315
0.2909998 0.11924896 3.6577678 4288192170
0.29905388 0.12206915 3.6626718 4288722371
0.30054936 0.1179658 3.6662247 4289905872
0.30310866 0.11981012 3.667685 4284377194
0.30519709 0.12348834 3.6674395 4284642179
0.30562124 0.12181466 3.6669872 4290168272
0.30542669 0.12106083 3.6687677 4285299589
0.20251667 -0.078101702 3.5432534 4284768345
0.20318514 -0.079795033 3.5432589 4284505944
0.20602386 -0.082787536 3.5463006 4283715915
0.21019424 -0.067176066 3.5570946 4288058505
0.23502105 0.032609865 3.634536 4285035123
0.24366932 0.028753242 3.63936 4284114021
0.25111106 0.11483436 3.6331699 4289248198
0.25614241 0.026254721 3.6484935 4287143079
0.27067199 0.11456815 3.6540277 4289576650
0.28121045 0.1165059 3.6582935 4290036171
0.20584343 0.10526406 3.6189177 4282729280
0.049221862 0.11702195 3.5616927 4287933370
0.052396834 0.11601695 3.5614545 4287406767
0.057528175 0.11706023 3.5610197 4287603889
0.060107864 0.11266451 3.5615356 4287933111
0.0620998 0.10623459 3.5632758 4288196284
0.065274931 0.13547599 3.5657549 4283256141
0.068847023 0.13489318 3.5674739 4282862417
0.074395157 0.12372069 3.5651674 4282860353
0.074223787 0.11660337 3.5666294 4282467396
0.079329863 0.12339192 3.5650356 4283323483
0.079360701 0.11351847 3.5671363 4282927689
0.082842343 0.12109003 3.5651653 4287801526
0.081658684 0.13652539 3.5674353 4289111709
0.082624286 0.10497785 3.5670738 4284444529
0.085635506 0.1221066 3.5655274 4284049519
0.086726673 0.12542091 3.5658617 4287999424
0.083278947 0.13676631 3.5686128 4283850339
0.086988308 0.11771749 3.5662467 4284905095
0.088681981 0.12550446 3.5657737 4287866807
0.088639364 0.12114327 3.5663021 4287209388
0.088139094 0.1375583 3.5680609 4289177502
0.090489686 0.11692995 3.5672286 4283455589
0.091035791 0.12012672 3.5672352 4284641394
0.089534663 0.10841895 3.5688143 4283521116
0.093096845 0.11927225 3.567924 4284245867
0.084179878 0.087687358 3.5737543 4290235095
0.094162606 0.11544647 3.5679975 4287012268
0.091020234 0.098413341 3.5702107 4284575862
0.094438374 0.10876817 3.5696707 4287012525
0.097541742 0.12275624 3.570111 4283126101
0.099177524 0.11908838 3.5707667 4283257428
0.1004206 0.11173236 3.5704751 4284510066
0.10547975 0.11506099 3.5724976 4286090135
0.1019486 0.095386431 3.5751164 4283323486
0.18353522 -0.060408693 3.5351238 4290160015
0.18347663 -0.059280351 3.5372322 4290225807
0.18507734 -0.059676733 3.5383477 4283585105
0.11368789 0.08788082 3.5900464 4289577424
0.18686293 -0.063467167 3.5405319 4283650385
0.18624309 -0.059598587 3.5431819 4282991677
0.12200437 0.089960091 3.5905244 4283652703
0.18981601 -0.072354004 3.5421431 4284770663
0.1242611 0.12066095 3.5902839 4282071607
0.18974954 -0.074221194 3.5427766 4285889913
0.19047409 -0.07013835 3.5423534 4284178785
0.1916475 -0.071905158 3.5425375 4289969346
0.19063045 -0.065781511 3.5434136 4286086520
0.19123194 -0.068915039 3.5438421 4286019439
0.1883757 -0.083825678 3.5459874 4289047989
0.19293147 -0.075580381 3.543015 4282860352
0.19495898 -0.081441797 3.5443275 4290493116
0.19564262 -0.075233765 3.5439265 4282926400
0.19462304 -0.070275269 3.5461199 4283123523
0.19369198 -0.067411564 3.5468888 4286351234
0.19789581 -0.081067532 3.5453074 4287007115
0.19728686 -0.074053712 3.546726 4285558374
0.19602555 -0.085492194 3.5479677 4289376696
0.13318457 0.08704526 3.5951581 4290234579
0.11450711 0.08068835 3.6092768 4289773515
0.19751643 -0.072863623 3.5488033 4284375132
0.197225 -0.068572149 3.5498822 4285168248
0.19940619 -0.085455976 3.5481775 4289639611
0.20078957 -0.08190576 3.5474474 4282070577
0.19933301 -0.088244691 3.5504093 4286546054
0.20113489 -0.08636979 3.5500183 4290955212
0.19759512 -0.065734543 3.5531008 4287270019
0.20262945 -0.082122758 3.5495269 4288256668
0.14726853 0.086097561 3.5936449 4289050051
0.20433497 -0.083647877 3.5504863 4289244337
0.20282924 -0.086324178 3.5516009 4290954697
0.20563947 -0.082704037 3.5514171 4281807404
0.20233543 -0.066433169 3.5543752 4286875261
0.19852145 -0.063750416 3.5573449 4285033576
0.20796949 -0.083108008 3.553668 4287993756
0.20823455 -0.089406036 3.5581703 4288059547
0.20696372 -0.069242589 3.5594773 4286610031
0.20877992 -0.076114863 3.5580699 4284899669
0.21104653 -0.083356254 3.5573025 4281807402
0.20994528 -0.079646312 3.5600231 4283254588
0.20812176 -0.068425752 3.5621161 4287794817
0.21160306 -0.082794182 3.5596418 4284109642
0.15665084 0.087997206 3.6045194 4283519056
0.20933545 -0.07394895 3.5627036 4284110158
0.21248426 -0.086097181 3.5606413 4288651939
0.15572344 0.086077102 3.6069417 4283191892
0.21367957 -0.084362492 3.5631034 4283715399
0.16629288 0.094851762 3.6015825 4282597180
0.2137168 -0.08157216 3.5649335 4286479227
0.21467838 -0.082428783 3.5673482 4285163880
0.15660565 0.061344747 3.6160643 4284771950
0.21552654 -0.083586983 3.5691423 4283715914
0.21603358 -0.082881406 3.5709062 4283452484
0.15816088 0.057092216 3.6189015 4283652186
0.2168134 -0.085504599 3.5716653 4288849577
0.21839163 -0.086496942 3.5757906 4285426791
0.17323306 0.11784404 3.6145301 4281741873
0.21756917 -0.074820369 3.5768797 4285228380
0.21857779 -0.081304058 3.5771408 4282465334
0.21881893 -0.086967029 3.5775499 4286283391
0.21797286 -0.073336825 3.5786655 4282596922
0.21566896 -0.091709718 3.5804183 4291743955
0.21940619 -0.080857553 3.5790389 4286413426
0.2193232 -0.077162527 3.5792947 4286149481
0.22000027 -0.08513324 3.5791256 4285163876
0.18303412 0.10829709 3.6126449 4283191634
0.22028399 -0.088581659 3.5806682 4291414991
0.22022995 -0.088486761 3.5829544 4290494146
0.18524764 0.045314647 3.6177492 4284045654
0.22125937 -0.085780531 3.5864596 4285623912
0.22201532 -0.075424336 3.5864255 4284505687
0.21784435 -0.056243017 3.5906901 4283255881
0.17505558 0.033170141 3.6277678 4289177502
0.22269951 -0.038014479 3.5874944 4288849575
0.22273742 -0.045185864 3.5883389 4287862422
0.17500007 0.030805148 3.6296198 4289111710
0.22262277 -0.07949584 3.5889783 4285361257
0.22348909 -0.043003798 3.5895526 4283519566
0.17596428 0.030838957 3.6310282 4281805348
0.22399727 -0.045819718 3.589715 4283584585
0.22246321 -0.080166481 3.5912223 4288652201
0.18918812 0.057125326 3.6209342 4282531642
0.22474994 -0.049137447 3.5904415 4289178542
0.2265913 -0.039409805 3.5890305 4287729282
0.2240459 -0.066184878 3.5923688 4285755499
0.22879373 -0.040542856 3.5887728 4282663488
0.1740735 0.025143838 3.6373656 4281937449
0.1865229 0.038362965 3.6269228 4281610027
0.22351688 -0.074143447 3.5941262 4288914855
0.22334908 -0.052855473 3.5946956 4284437579
0.23025173 -0.04541932 3.5893934 4283650905
0.17787579 0.032124296 3.6357765 4289111709
0.22937934 -0.04833056 3.5910585 4292336092
0.17147209 0.020521132 3.642535 4289177502
0.22286682 -0.077093348 3.5982282 4286546306
0.2311815 -0.046973906 3.5919743 4286744464
0.2231877 -0.073889069 3.5988762 4288389029
0.22584385 -0.06394159 3.5974419 4285820774
0.22796372 -0.030876337 3.5958982 4287861125
0.22639881 -0.054679584 3.5980403 4288125338
0.2317501 -0.046662543 3.5938342 4288323236
0.22657037 -0.063292481 3.5996389 4285557601
0.22722848 -0.05911183 3.5991819 4285952875
0.22802438 -0.05582412 3.5985386 4290493371
0.22444369 -0.071087785 3.6026363 4287532947
0.22965306 -0.050573628 3.598278 4289573305
0.22739102 -0.058681402 3.6008286 4288585889
0.22065067 -0.074016243 3.6075585 4289507768
0.22435865 -0.070326865 3.6046829 4285427827
0.22439237 -0.069358289 3.6060905 4289836732
0.22907402 -0.023766492 3.6023455 4287334268
0.22733922 -0.061937634 3.6039834 4285623654
0.22854936 -0.052743569 3.6030676 4288652460
0.23394588 -0.042983752 3.5994804 4282860865
0.22680806 -0.017842732 3.6063282 4282532672
0.2325473 -0.04707054 3.6014309 4288717994
0.22838964 -0.019321099 3.6079507 4286282096
0.23075126 -0.024548048 3.6064179 4282004783
0.22741617 -0.015598638 3.6095681 4287663747
0.22839184 -0.052967187 3.6092014 4288389288
0.2341886 -0.045940347 3.6048334 4287731357
0.22718559 -0.013947518 3.6114841 4286941311
0.23322025 -0.046512518 3.6074071 4283847502
0.22905441 -0.01773233 3.6144946 4282729537
0.22863157 -0.015495256 3.6151297 4287794303
0.20342797 0.05479838 3.6396441 4281543974
0.23360723 -0.04296881 3.6122475 4283058248
0.2261034 -0.012001549 3.6195552 4286479990
0.22824489 -0.014830037 3.6178427 4283453775
0.22498415 -0.010502479 3.621707 4286547069
0.22803307 -0.016303401 3.6193845 4286744447
0.22455665 -0.0080019031 3.6233597 4282861121
0.22753645 -0.01485505 3.6217785 4287005817
0.21914518 0.038332473 3.6305783 4282728505
0.22765814 -0.013033382 3.6223688 4282465850
0.22592847 -0.0097401971 3.6242833 4285888110
0.20785114 0.050876245 3.6418536 4289046173
0.21018831 0.049436975 3.6411364 4289045917
0.22595197 0.1008096 3.6276898 4283651926
0.22679804 -0.013014778 3.6281364 4284965979
0.22815923 0.10196393 3.6298673 4283123523
0.22624455 -0.013448616 3.6314709 4282794557
0.22571872 0.032527234 3.6338465 4282072897
0.21763623 0.046092842 3.6435938 4289046173
0.22491159 -0.014087532 3.6369364 4288122494
0.2200772 -0.0028476145 3.6429944 4282267954
0.23217635 0.10559036 3.6347823 4289773515
0.21810704 0.0022180311 3.6502268 4287138173
0.21982126 -0.0020271349 3.6487796 4287268217
0.23581706 0.031585477 3.6385593 4284773236
0.2158893 -0.0073480932 3.663624 4286216302
0.23502873 0.03532853 3.6460509 4283587680
0.21549694 -0.005247341 3.6659598 4286346601
0.24947518 0.11522572 3.6376097 4288129978
0.24305102 0.026898522 3.6447854 4289511373
0.24843712 0.10751452 3.6423173 4289840081
0.2602922 0.12024252 3.643043 4290167501
0.25750345 0.11278952 3.6490738 4291416795
0.25672528 0.022659754 3.6556811 4287932855
0.25726685 0.10969027 3.6590374 4290102482
0.25611615 0.10767178 3.6622391 4283516735
0.269858 0.12095331 3.6493287 4290693074
0.25787157 0.028997099 3.6671085 4285035895
0.25729722 0.024464769 3.6703629 4288591039
0.27348375 0.12020371 3.653662 4289510345
0.25658351 0.023879105 3.6725743 4286550942
0.25671855 0.026970787 3.6756513 4284575089
0.25621167 0.025160424 3.6779065 4289774027
0.19936991 0.034906156 3.7827594 4284242515
0.19907176 0.038924634 3.7835658 4283057984
0.19423488 0.044223439 3.7911444 4287005560
0.19987564 0.039373714 3.7851164 4287597181
0.20259851 0.037464902 3.7833176 4283649863
0.20599286 0.035569988 3.7805858 4285755753
0.19797945 0.044082709 3.7910659 4283715399
0.20098077 0.040781993 3.7902665 4288978317
0.20856918 0.039952058 3.7948263 4285754723
0.31023332 0.11950029 3.6891601 4290825945
0.066499792 0.13518536 3.5650175 4283256141
0.092246316 0.11990333 3.5664709 4284641394
0.08435864 0.087689914 3.5736408 4290235095
0.094088338 0.11039445 3.5687728 4286683561
0.10140666 0.11416727 3.5706942 4286551459
0.10407699 0.11272959 3.5714269 4284246380
0.10626043 0.11490419 3.571986 4286090135
0.10863984 0.10043582 3.5746827 4285958548
0.11818177 0.10140803 3.5783026 4285431943
0.12246417 0.11280742 3.5805826 4285300877
0.18882237 -0.069582932 3.5382786 4283977545
0.19154227 -0.068101481 3.5407472 4282991939
0.12594615 0.12040184 3.5898778 4282927690
0.1296445 0.088623002 3.5899386 4288327872
0.19619307 -0.07408715 3.5424924 4287137661
0.13498396 0.086832576 3.593847 4290234579
0.14609845 0.103645 3.5890088 4284771693
0.20212325 -0.073375151 3.5498488 4286809726
0.20332105 -0.072077721 3.5515049 4281872943
0.14552633 0.11678687 3.6003451 4282334779
0.14669798 0.086847812 3.5994353 4283850601
0.15862179 0.10018381 3.5923951 4287735730
0.21207349 -0.087068863 3.5582402 4290230975
0.15414205 0.085869141 3.604423 4284312437
0.21139008 -0.070606872 3.5605762 4282136626
0.21423456 -0.083611526 3.5590436 4282728249
0.15765043 0.12078366 3.6061852 4282137147
0.14880599 0.070727654 3.6134813 4283982182
0.15924625 0.11860389 3.607141 4284245865
0.16766228 0.094625093 3.6005063 4282597180
0.1534683 0.070807077 3.6131079 4283916644
0.1544926 0.072021544 3.6123419 4289445836
0.16233872 0.11649492 3.6082892 4281808437
0.15717366 0.072324626 3.6125317 4283982437
0.21648252 -0.084476061 3.564446 4285294429
0.15475468 0.064227954 3.6144438 4287604151
0.16292906 0.084561519 3.6111019 4284509036
0.17016856 0.11115537 3.6070676 4282927174
0.21768893 -0.084748924 3.5682673 4284900189
0.17276117 0.091334112 3.6080043 4285363571
0.17390096 0.091758288 3.6098211 4285100914
0.18026872 0.1023121 3.6051147 4283189572
0.17176233 0.11750624 3.6126778 4281544493
0.18456161 0.10800533 3.611372 4283191634
0.2219948 -0.066882916 3.582535 4284242515
0.18349709 0.048654988 3.6176956 4285167222
0.19006798 0.11720895 3.6173058 4282664259
0.18780528 0.046784513 3.6190281 4281677623
0.18925595 0.044994995 3.6201727 4284575086
0.23140052 -0.043620247 3.5872383 4287730321
0.23142752 -0.038212992 3.5884044 4284439638
0.19620091 0.046425834 3.6200793 4281939765
0.23130722 -0.030741172 3.5951896 4285229409
0.2067769 0.10512791 3.6180863 4282926401
0.23501942 -0.044164196 3.5938263 4282268473
0.23500231 -0.045355454 3.595499 4288849838
0.20601539 0.031053511 3.6280289 4281939766
0.20954761 0.030297494 3.630018 4280688670
0.21679693 0.041469187 3.6287611 4281875260
0.22917552 -0.014788638 3.6202509 4287005817
0.2095585 0.050691035 3.6402564 4289046173
0.23404279 0.11212872 3.6247723 4287802296
0.21772872 0.046310615 3.6412573 4282925626
0.22721574 0.03240383 3.6324182 4282072897
0.22897798 0.038881753 3.6319499 4282729794
0.23140493 0.12272836 3.6304374 4283059275
0.21931119 0.04600475 3.6419888 4289046173
0.23701631 0.11286499 3.6257854 4287407023
0.23193091 0.032593817 3.6344419 4285233787
0.2441608 0.11088526 3.6294246 4287801270
0.24512354 0.11371586 3.6299279 4284969845
0.23735964 0.031509861 3.6370397 4284773236
0.24270867 0.028822506 3.6403246 4282731340
0.25035354 0.11502675 3.6339321 4289576649
0.2440564 0.025961578 3.6422811 4289314504
0.2498339 0.10992371 3.6373842 4285694351
0.24467044 0.028301448 3.6421897 4288525506
0.24476917 0.024462042 3.6440294 4289840592
0.24582316 0.031527709 3.6436749 4288130235
0.24667664 0.027050368 3.6438336 4289577936
0.25297213 0.11258701 3.6388137 4285101696
0.24881586 0.0299736 3.6449502 4288262334
0.25072441 0.024760202 3.6461709 4289116614
0.25836292 0.11937303 3.6390243 4285826191
0.25485662 0.10992037 3.6448319 4287731876
0.26086336 0.12261936 3.6397963 4284839039
0.26164851 0.12406763 3.6395323 4289576391
0.25366482 0.022601677 3.6493893 4286354853
0.25716218 0.023967475 3.6518037 4284706673
0.26387239 0.11171215 3.6530025 4287274155
0.27034873 0.119101 3.6485617 4286748841
0.28436148 0.11634826 3.6601186 4286945449
0.29011592 0.11964089 3.6597459 4287862948
0.2877892 0.11601847 3.6624775 4285825935
0.29972389 0.1183687 3.6682425 4290168786
0.20388108 -0.081316762 3.546911 4282333749
0.20491736 -0.08022128 3.5480964 4282202418
0.25110897 0.11195951 3.6365216 4289708235
0.25300157 0.029334551 3.6464727 4284376936
0.21061951 -0.081471108 3.5506372 4285624435
0.061612364 0.10670919 3.5635679 4288195770
0.060489167 0.1375979 3.5667324 4289111709
0.067889377 0.13507919 3.5680571 4283059536
0.081712969 0.12984888 3.5630047 4282798429
0.069394387 0.13692552 3.5689139 4283851886
0.080474064 0.13676795 3.5681713 4289111710
0.085713729 0.12282739 3.5673416 4283653735
0.083080679 0.13684861 3.568737 4283915616
0.078635044 0.08842238 3.5772734 4290037973
0.096563615 0.1365876 3.5724289 4283389270
0.097099632 0.1150615 3.5734851 4286420130
0.18324077 -0.059217099 3.5359294 4284376678
0.18371327 -0.061542522 3.5357945 4283846738
0.10149544 0.094199635 3.5831993 4289577679
0.19236626 -0.075664304 3.5434167 4282991937
0.19715321 -0.077735476 3.5448132 4282005041
0.19751562 -0.08114437 3.5455821 4286480772
0.18945189 -0.062703572 3.551367 4284179301
0.19887698 -0.080458865 3.5463917 4284900960
0.11865888 0.087269887 3.5921834 4290103253
0.19901522 -0.085483469 3.5484633 4289442489
0.12120356 0.090057671 3.5910892 4283849824
0.1953682 -0.089717567 3.5509479 4286545541
0.19240423 -0.091308184 3.5529749 4289902011
0.12568513 0.090987958 3.590708 4289840852
0.20003852 -0.086813323 3.5500488 4286151297
0.20177917 -0.08344686 3.5494337 4283518536
0.20413242 -0.083633073 3.5506372 4288783787
0.20024754 -0.069936447 3.5541096 4282663744
0.19657765 -0.064599521 3.5570314 4284901990
0.19551998 -0.097826704 3.5615139 4291480784
0.20960845 -0.08225105 3.5553443 4282859836
0.20641494 -0.069324456 3.5598972 4286347117
0.20577911 -0.067811117 3.560472 4287466625
0.2091586 -0.073972866 3.5628405 4283715399
0.21249171 -0.089290097 3.5643508 4292007383
0.1277733 0.069764286 3.6187837 4290037202
0.21171176 -0.069471665 3.5698967 4287598212
0.1561747 0.088060498 3.6048899 4283519313
0.21506351 -0.087680921 3.5706754 4285229152
0.13686958 0.067477077 3.6183615 4289642959
0.21568216 -0.082937002 3.5711887 4283452484
0.21342574 -0.093617931 3.5736885 4286743947
0.21132047 -0.096767478 3.575825 4290823112
0.21592243 -0.081620619 3.573209 4285360485
0.15505478 0.075724758 3.6139014 4284114282
0.21723314 -0.07487724 3.5771546 4285031259
0.21805124 -0.081404135 3.5775683 4282531127
0.21846889 -0.087036349 3.5778375 4286085756
0.21759124 -0.073382497 3.5788918 4282597178
0.21928744 -0.084676959 3.5788836 4286875788
0.21898004 -0.080947094 3.5793912 4286610549
0.21876523 -0.077254109 3.579756 4286149481
0.21899939 -0.069305204 3.5822043 4284307537
0.16139972 0.089302137 3.6200538 4283126101
0.22000386 -0.088532671 3.5831437 4291481041
0.171536 0.11821608 3.6159239 4281741615
0.22091265 -0.085844256 3.5867529 4285229154
0.22024536 -0.086420491 3.5882173 4288521130
0.22177772 -0.07437063 3.5874867 4287664531
0.22160728 -0.080294259 3.5878832 4284900188
0.22180887 -0.038077947 3.5882511 4289178025
0.22217494 -0.045245431 3.5888176 4287993750
0.22165468 -0.082256839 3.589324 4285690481
0.22217253 -0.079581365 3.5893621 4285295464
0.22264887 -0.077030517 3.5891013 4286743169
0.22371382 -0.040048666 3.5895164 4284835944
0.21996211 -0.025262794 3.5931056 4288123782
0.22188161 -0.080250546 3.5917208 4288849837
0.2191817 -0.054971829 3.5936646 4284110158
0.22597681 -0.03944543 3.5895588 4287926146
0.22401914 -0.049199354 3.5910702 4288981163
0.22816856 -0.040583391 3.5893128 4282795330
0.22196561 -0.079013228 3.5943005 4289178802
0.22449814 -0.050696865 3.5931361 4290757577
0.22981945 -0.045444544 3.5897684 4283519577
0.2233796 -0.074186772 3.5942452 4290099389
0.22324944 -0.053029016 3.5947809 4284963406
0.17966844 0.038660806 3.6234605 4281674019
0.2280547 -0.048577894 3.5929511 4291875540
0.22397773 -0.068513893 3.5966439 4286808445
0.17551847 0.032376923 3.6293831 4282331691
0.2222348 -0.077205151 3.5987799 4285953910
0.23053862 -0.047492094 3.5936155 4290428610
0.22268054 -0.073958658 3.5993199 4288257443
0.17493768 0.030817701 3.6319079 4281805605
0.17399734 0.02917018 3.6327467 4289111966
0.22438374 -0.070646547 3.5995493 4287401358
0.2211525 -0.075527325 3.6017668 4285690480
0.22342886 -0.071978793 3.6007617 4288520358
0.22717868 -0.057784617 3.5989392 4290363589
0.22371118 -0.068167537 3.6014874 4290033594
0.22961231 -0.050724536 3.5983136 4290165440
0.22825918 -0.05603572 3.6002707 4287596927
0.22386973 -0.071210712 3.6031444 4286677636
0.22711131 -0.059567217 3.6013849 4285558630
0.22949347 -0.029014546 3.6004379 4281676076
0.23064993 -0.049484458 3.5995572 4283848278
0.17254981 0.024393644 3.6386316 4288914330
0.1750012 0.030646738 3.6372259 4282991161
0.22772381 -0.053606007 3.6020868 4284505689
0.22900972 -0.057479084 3.6013167 4292072919
0.17718339 0.032270495 3.636379 4289111709
0.22747409 -0.058412232 3.6031356 4285557859
0.22819602 -0.023824729 3.6031294 4287202938
0.22586915 -0.063694596 3.6052132 4287796632
0.23228404 -0.047388755 3.6016665 4288455080
0.22776277 -0.057221457 3.6049061 4285098081
0.22455092 -0.068085 3.6070912 4286018410
0.18474656 0.029240169 3.6369588 4289177502
0.23334582 -0.045632128 3.6041324 4283584846
0.2277835 -0.019360149 3.6084986 4286084461
0.23019007 -0.024657207 3.6069255 4281938991
0.22411232 -0.06382817 3.6108394 4288520615
0.22372867 -0.065968595 3.6114955 4285492580
0.22677755 -0.015638182 3.6101463 4287400832
0.22767252 -0.053074058 3.6098537 4288389545
0.22743677 -0.014777864 3.6117144 4283717204
0.23229739 -0.045236032 3.6090508 4284703594
0.19146003 0.062726729 3.6376734 4289111709
0.2263082 -0.054464489 3.6140156 4289178290
0.19360679 0.060343515 3.6378453 4283188797
0.22567226 -0.012067948 3.6156952 4284571993
0.22771752 -0.014847518 3.6151497 4286742646
0.21922238 -0.0053681685 3.621367 4285097821
0.22799274 -0.017820474 3.6154704 4282597695
0.23304544 -0.043007426 3.6127665 4283189835
0.22423881 -0.01051125 3.619318 4284440409
0.22729532 -0.016335359 3.6200688 4286744447
0.22420356 -0.010329176 3.6224315 4286350203
0.22409086 -0.0085962024 3.6245415 4286153340
0.20236917 0.054938726 3.6406212 4281543717
0.22595032 -0.01156406 3.6246674 4285691505
0.22197585 -0.0048617111 3.6304688 4286348917
0.22605599 -0.013036614 3.6288369 4285360736
0.22220473 0.035159197 3.6326282 4284311657
0.22230859 0.027045686 3.6341043 4281674018
0.22819214 -0.028119484 3.6369407 4284571232
0.22104746 0.044057552 3.6426725 4284508522
0.23097888 0.10613276 3.6359446 4288852930
0.21662346 -0.0029032403 3.6463158 4282267954
0.21753858 0.00047553721 3.6458466 4284769116
0.21585225 0.0020769946 3.6479537 4282202418
0.21883693 -0.0020005698 3.6497381 4287333752
0.21701734 0.0021915736 3.6512871 4287137660
0.2194473 -0.0056740232 3.6496773 4288451974
0.2183219 0.0002512747 3.6511409 4288057473
0.22847827 0.041391674 3.6442101 4283585876
0.24087252 0.030451288 3.64326 4284771437
0.21338606 -0.0054348167 3.6641862 4286018151
0.21263625 0.0048580454 3.6701453 4287596666
0.21287246 0.007006187 3.6720715 4282399284
0.24352983 0.034821738 3.6491785 4283915356
0.24484001 0.022782233 3.6487186 4287276214
0.24776331 0.027114131 3.6485288 4285102457
0.25576413 0.02406499 3.6563044 4284574058
0.26525021 0.11471775 3.6538565 4289510088
0.19491147 0.0071689701 3.7213047 4287071094
0.25560781 0.023944911 3.6736567 4286288028
0.19409795 0.0090409154 3.7272279 4291349711
0.25628465 0.028051022 3.6768219 4285102216
0.19321832 0.011424872 3.7317262 4285295973
0.19357274 0.013732662 3.7375133 4290757058
0.1936693 0.01679609 3.741864 4284374616
0.19252142 0.018718969 3.745749 4283320128
0.19511777 0.017778503 3.7461629 4284110415
0.19433406 0.023799101 3.7532046 4287203966
0.19642544 0.021467345 3.7519798 4287598479
0.19498731 0.024816327 3.7576358 4282202163
0.19487761 0.029008156 3.7642195 4286808953
0.19623089 0.029642863 3.7675343 4281742127
0.19984144 0.027528431 3.7672265 4282925884
0.19381687 0.03386654 3.7731128 4283715914
0.18894996 0.038175836 3.7782171 4286940024
0.18516038 0.042178843 3.7837102 4282860349
0.19652902 0.032608151 3.7734041 4281807405
0.18827772 0.040220827 3.7832432 4284110156
0.20089081 0.029367037 3.7720342 4282267955
0.19312984 0.038002241 3.7806268 4283715654
0.1972505 0.036938846 3.7819786 4282069806
0.19684058 0.039280724 3.7842941 4287335039
0.18712693 0.044852421 3.7944808 4284702810
0.19703463 0.037839279 3.7858434 4283781707
0.19763157 0.039506856 3.7878304 4287334010
0.1978724 0.04022263 3.7895186 4285492064
0.19469832 0.044391848 3.7950585 4283518019
0.1968161 0.041125212 3.7953584 4288912525
0.20673385 0.037704967 3.7943914 4289046173
0.08235807 0.12121713 3.5655582 4287998648
0.081122048 0.1366293 3.5678697 4289111710
0.098373309 0.11924221 3.571444 4283323220
0.19710898 -0.074077703 3.5469 4285624167
0.19778164 -0.082579657 3.5468888 4288060320
0.1973546 -0.072884008 3.5489624 4284638561
0.21064155 -0.077215597 3.5648396 4281675818
0.15576841 0.085526757 3.6083057 4282928718
0.21570566 -0.090066575 3.5740223 4287270546
0.21679281 -0.087105505 3.5752912 4291743955
0.2143859 -0.093126021 3.5789618 4286415240
0.21641943 -0.056467824 3.589467 4283386177
0.22445428 -0.050721623 3.5917988 4290756803
0.23417343 -0.043961421 3.6017039 4288191907
0.22772509 0.099699438 3.6343908 4283516990
0.23552054 0.032796726 3.6395123 4284510068
0.19246589 -0.068759315 3.543267 4286019696
0.19994256 -0.069145575 3.5516019 4282663487
0.2093129 -0.068274744 3.5615499 4287795074
0.21509916 -0.070993252 3.5717897 4283387465
0.23649532 0.11077842 3.6271346 4284838008
0.078894019 0.13052154 3.5643008 4283127137
0.10228478 0.094218746 3.582803 4289643729
0.18738341 -0.0605231 3.551337 4290291600
0.1246168 0.091086462 3.5912793 4289775059
0.13581115 0.10162743 3.588804 4285298809
0.19900885 -0.094970025 3.5703845 4289902267
0.21611354 -0.084287308 3.5700803 4288849835
0.21574289 -0.090070009 3.5739999 4286677894
0.15471421 0.090616778 3.6010377 4289379528
0.21520513 -0.090630941 3.5787492 4284900967
0.22017768 -0.088702202 3.5808234 4291612369
0.13666725 0.06773334 3.6184826 4289248460
0.21507034 -0.091269702 3.5848446 4289835700
0.22115165 -0.084262468 3.5853078 4288191648
0.15521212 0.1321788 3.6175451 4284639851
0.22270016 -0.036126204 3.5894363 4288453786
0.22605443 -0.037701964 3.5893044 4284112219
0.22257109 -0.077884048 3.5926104 4285557858
0.22512338 -0.051068682 3.595372 4290099904
0.22237059 -0.076963641 3.5967972 4286610806
0.22751035 -0.032145288 3.5948277 4287401090
0.23168765 -0.046838768 3.5960138 4289507768
0.22709431 -0.027000837 3.6000593 4286942339
0.2305771 -0.049135026 3.5984161 4286020998
0.22778162 -0.054654464 3.6015074 4289046441
0.22854504 -0.0519379 3.6022546 4284308577
0.22037284 -0.074950665 3.6062953 4290560198
0.22405393 -0.069677763 3.6047835 4290625990
0.22647855 -0.0620833 3.6042333 4284965980
0.2265358 -0.019712351 3.6049728 4282993219
0.1871395 0.039303496 3.6244695 4283650637
0.23363163 -0.041736942 3.6018608 4282465849
0.22540602 -0.066234753 3.6074793 4288915629
0.22628886 -0.056601018 3.6071215 4288454561
0.1742204 0.029091517 3.634032 4281740327
0.23351611 -0.04496225 3.6059537 4284571744
0.22508428 -0.061969459 3.6109333 4285295206
0.1921432 0.041002598 3.6278689 4285496186
0.22369727 -0.061732877 3.6131546 4284899931
0.22664288 -0.054630857 3.6120832 4285494136
0.22349231 -0.060132284 3.6156163 4285493100
0.1708132 0.020332677 3.6430678 4289177502
0.16820461 0.010259351 3.6467986 4283979344
0.22148298 -0.057341188 3.6201942 4286150515
0.22668405 -0.01339113 3.6188962 4287860868
0.20808664 0.027922809 3.6293471 4282727992
0.23290949 -0.041184671 3.6168866 4282531131
0.1713606 0.020482099 3.6497581 4282399026
0.16983144 0.0097481217 3.6532283 4282400829
0.22490689 -0.0098557416 3.6250632 4286414196
0.21839598 -0.051790565 3.6291754 4289375411
0.22622208 -0.01385658 3.626229 4285952102
0.19878681 0.056549352 3.640878 4283123260
0.21899076 0.038384464 3.6307445 4282531384
0.22855845 -0.042592969 3.6274447 4287730839
0.22779568 0.10200891 3.630197 4283189058
0.22728309 -0.039788473 3.6311455 4283650645
0.2165686 0.0012189539 3.6441116 4285691503
0.20581175 0.011193674 3.6521909 4284769372
0.24440624 0.111028 3.6347039 4290036942
0.2239188 -0.029782895 3.6490757 4285691007
0.24855636 0.11551145 3.638495 4288129977
0.22311172 -0.027263615 3.6517949 4282465592
0.23476379 0.03557675 3.6459749 4284970101
0.22230367 -0.026069624 3.6551673 4282399800
0.22013783 -0.027569154 3.6577642 4281741612
0.22007467 -0.023439571 3.6616547 4285295732
0.21919738 -0.02350001 3.6634374 4283255115
0.24051169 0.01973168 3.6521184 4288984260
0.2140462 -0.0052541471 3.6672943 4286017636
0.25295651 0.11194169 3.646199 4291679966
0.21235104 0.0016862785 3.6695781 4282398512
0.211209 0.0091680586 3.672143 4283057728
0.21119109 0.0091786059 3.6739018 4285952357
0.25809383 0.11216836 3.6478295 4291351258
0.24416897 0.015992103 3.6582308 4291218902
0.23943229 0.011551689 3.6638219 4282201649
0.25742838 0.029035822 3.6678016 4284970102
0.25589812 0.023850791 3.6713278 4286222491
0.25049409 0.032631833 3.6748025 4284376936
0.19491461 0.0034063067 3.7135966 4286479216
0.27888316 0.11803512 3.6610639 4289575882
0.19400752 0.0071686008 3.7220621 4286939766
0.1796826 0.012034273 3.7313864 4282069804
0.28528571 0.11672246 3.6651926 4285825935
0.19309424 0.0072778915 3.7251003 4291481038
0.1927588 0.0090721156 3.7283628 4291415503
0.19239533 0.011485638 3.7324293 4285098851
0.19311133 0.013767512 3.7379127 4290954436
0.18154004 0.021959525 3.7460372 4285952872
0.192202 0.015964119 3.7405286 4283584586
0.18337922 0.022749642 3.7467182 4280951067
0.18643799 0.020651236 3.7452769 4282728246
0.18573993 0.024337327 3.7506714 4286543979
0.19405366 0.017834948 3.7471027 4284242001
0.19307245 0.021750482 3.7496808 4287466368
0.19314793 0.022979863 3.7524476 4287137918
0.18469161 0.031339839 3.7661455 4281017118
0.1948338 0.027029913 3.7625582 4282202420
0.30147007 0.11791003 3.6872427 4287932084
0.20548728 0.037704054 3.7956262 4289111709
0.060614485 0.13752942 3.5666549 4289111710
0.069391683 0.13690686 3.5689142 4284180336
0.096025847 0.13672169 3.5727763 4283389269
0.2098926 -0.079647213 3.5600634 4284175689
0.22357306 -0.070148766 3.5979486 4285689960
0.16918857 0.017023664 3.6471944 4289177502
0.22399221 -0.014117725 3.6378179 4288122493
0.25577325 0.10760947 3.662607 4283385149
0.19349612 0.0090702726 3.7278781 4291415503
0.19464025 0.017818931 3.7466979 4284242001
0.19709791 0.022940703 3.7573962 4283189315
0.19858643 0.026223816 3.7648351 4283452484
0.19566856 0.029702779 3.7681901 4281742127
0.19941206 0.027556023 3.7677305 4282860347
0.19340266 0.03391185 3.7735982 4283716171
0.19601955 0.032649942 3.7740045 4282136884
0.20032099 0.029419057 3.7727101 4282333748
0.21757743 -0.084926851 3.5752511 4285228894
0.23951381 0.11126164 3.6303217 4284838519
0.24900796 0.1154067 3.6382432 4288129977
0.18332084 -0.059194047 3.5373869 4290357393
0.08808139 0.10856505 3.569802 4284179044
0.19301105 -0.085454047 3.5470717 4286414469
0.096123397 0.1229008 3.5710804 4283257430
0.096111946 0.11956799 3.5712383 4283191121
0.10194549 0.11434978 3.5731971 4287341749
0.18330118 -0.054264791 3.5582173 4290423187
0.099270642 0.090989187 3.5777485 4285757572
0.096410431 0.088721953 3.579016 4290888647
0.20867732 -0.082371779 3.5556226 4282925888
0.20468414 -0.069635846 3.558285 4282663486
0.21149337 -0.088116966 3.5621109 4291020233
0.20842807 -0.074092083 3.5631845 4283979087
0.21258822 -0.08444272 3.5636842 4283781193
0.21343981 -0.087285236 3.5657277 4291020489
0.21317317 -0.085403971 3.5659797 4285162587
0.20308907 -0.094324864 3.568759 4289902524
0.21401316 -0.091211222 3.5669491 4291875797
0.21381289 -0.082562879 3.5679092 4285229415
0.1421743 0.11586154 3.5871356 4283783514
0.21435875 -0.084177092 3.5682511 4284505171
0.21258286 -0.06924203 3.569582 4287597954
0.21501163 -0.085213952 3.5702105 4285031517
0.14488584 0.10363156 3.5900974 4284969072
0.21505642 -0.083016753 3.5714715 4283452227
0.21601076 -0.085585102 3.5720873 4288783784
0.21280034 -0.065447964 3.5738497 4288386439
0.21318394 -0.093645856 3.5737357 4287073168
0.2142376 -0.091206282 3.5742691 4291481040
0.21281525 -0.094226614 3.5753279 4285032550
0.15176252 0.094348565 3.5933375 4289051849
0.21663558 -0.074954391 3.5774093 4285162587
0.21794479 -0.087115981 3.5780818 4286217599
0.21459481 -0.090750188 3.5790076 4284966761
0.21779522 -0.079088904 3.5784316 4282070577
0.21719296 -0.073434703 3.5790117 4282465592
0.21782431 -0.081781395 3.5793033 4287268482
0.2188336 -0.085322455 3.5797651 4285098339
0.21846926 -0.069379911 3.5824599 4285162331
0.21928521 -0.088112049 3.5838859 4286018924
0.21892898 -0.06730707 3.5847085 4284374101
0.14862107 0.079631686 3.6054802 4289117130
0.2206281 -0.084344178 3.5855381 4288191648
0.22022629 -0.085950539 3.5870879 4285163622
0.22088644 -0.075582922 3.5871568 4284242259
0.16687912 0.095333859 3.6041918 4282924856
0.22119014 -0.038157988 3.5883496 4289309868
