ply
format ascii 1.0
element vertex 1271
property float x
property float y
property float z
property uchar red
property uchar green
property uchar blue
end_header
0.68726 0.763596 4.5067 108 105 94
0.695127 0.798573 4.49315 98 93 81
0.68129 0.752726 4.55361 131 116 103
0.71312 0.809553 4.52234 144 131 111
0.718748 0.799438 4.52549 97 91 80
0.720646 0.789714 4.53311 178 163 141
0.730685 0.805897 4.54326 92 88 80
0.729342 0.791065 4.54771 128 118 101
0.743335 0.813746 4.55991 99 96 87
0.75345 0.811268 4.57787 124 120 106
0.741021 0.773146 4.66465 213 202 187
0.776419 0.823047 4.61017 188 176 155
0.769529 0.796364 4.63212 178 163 144
0.790317 0.840033 4.63782 201 191 172
0.797704 0.840115 4.64687 174 158 136
0.801899 0.819359 4.65529 190 175 156
0.813836 0.841736 4.66907 107 101 88
0.816058 0.814106 4.67665 126 117 102
0.824125 0.830435 4.67882 181 166 144
0.829177 0.839574 4.68238 105 101 90
0.843398 0.833671 4.69266 134 127 111
0.875169 0.836419 4.72157 185 173 155
0.89713 0.851136 4.77702 105 104 97
-0.0682473 0.742293 3.82942 106 104 93
-0.0438776 0.546224 3.89457 68 74 78
0.302407 0.832898 4.15523 75 75 70
0.377067 0.653329 4.10555 198 183 165
0.397057 0.107922 4.33327 220 213 204
-0.499227 0.744569 3.39291 50 54 59
0.871194 0.837966 4.73202 185 173 155
-0.623849 0.679512 3.33157 209 197 177
-0.41358 0.777599 3.42281 196 179 161
-0.379014 0.754439 3.4438 162 149 127
-0.359311 0.691206 3.4667 177 163 141
-0.34624 0.701658 3.47653 171 161 140
-0.466238 0.548665 3.64278 147 131 111
-0.311044 0.62109 3.52721 147 136 116
-0.32653 0.578906 3.55759 208 197 181
-0.34584 0.550873 3.60579 215 206 198
-0.408435 0.520107 3.68791 165 146 131
-0.273916 0.537246 3.65056 216 203 187
-0.248049 0.517886 3.74026 211 197 182
-0.15851 0.549854 3.71718 209 197 184
-0.195073 0.834125 3.78798 83 87 88
-0.157586 0.540418 3.76388 181 165 146
-0.16802 0.440459 3.83244 170 157 147
-0.1926 0.387149 3.87162 168 155 134
-0.175118 0.376604 3.87906 132 124 108
-0.102066 0.479596 3.81117 199 186 165
-0.144599 0.384438 3.86638 203 188 166
-0.0524491 0.569917 3.75708 217 210 200
-0.0917762 0.496816 3.8134 215 205 191
-0.0792163 0.533514 3.81724 115 103 92
-0.115566 0.377854 3.86779 197 183 160
-0.111687 0.349047 3.88531 202 189 165
0.250908 -0.391584 3.4405 143 166 183
0.229084 -0.521589 3.49676 169 162 153
0.240516 -0.550953 3.50734 174 166 159
0.287302 -0.538821 3.50375 118 110 107
0.301317 -0.519739 3.5025 63 67 72
-0.0566553 0.259431 3.97616 157 165 165
0.293311 -0.460045 3.52642 88 89 86
0.303398 -0.545819 3.51409 192 187 181
0.317699 -0.5061 3.52551 56 62 67
0.323818 -0.528194 3.53122 88 95 96
0.323027 -0.548021 3.53542 121 116 116
-0.013466 0.541438 3.9884 57 62 69
0.330539 -0.538039 3.54182 48 52 58
0.00308535 0.558874 3.9819 67 64 64
0.00540273 0.194516 3.98599 157 166 166
0.017048 0.204718 3.98221 58 60 69
0.00804294 0.573554 3.99383 87 87 85
0.323314 -0.477175 3.57811 48 51 56
0.337505 -0.561727 3.55974 191 186 181
0.361501 -0.566448 3.61316 173 169 169
0.361859 -0.521951 3.62577 86 97 100
0.056247 0.428035 4.05904 158 167 167
0.363991 -0.574415 3.63816 199 195 192
0.357276 -0.468291 3.6483 53 58 64
0.375257 -0.55183 3.64785 59 65 70
0.375732 -0.555798 3.6685 79 87 93
0.353899 -0.465309 3.70792 126 135 133
0.0983121 0.3851 4.07526 158 166 166
0.375241 -0.553553 3.68857 156 151 149
0.342852 -0.435443 3.7454 134 148 154
0.106192 0.375995 4.09359 157 166 166
0.375834 -0.572169 3.72424 190 184 179
0.280557 -0.0700119 3.90976 89 97 96
0.382307 -0.559564 3.77665 138 134 130
0.350704 -0.370529 3.86707 83 89 90
0.195785 0.302411 4.11011 97 94 87
0.37569 -0.427422 3.84686 143 148 151
0.37485 -0.459548 3.87477 148 144 140
0.230285 0.144935 4.09344 32 39 49
0.375384 -0.45772 3.8966 126 131 134
0.381195 -0.421108 3.89611 178 173 169
0.398562 -0.247807 3.86979 126 137 138
0.368941 -0.456411 3.9208 169 167 164
0.384587 -0.410427 3.90829 115 125 130
0.410224 -0.251591 3.88084 52 57 61
0.408033 -0.232255 3.88466 55 59 63
0.398101 -0.201541 3.91634 69 74 77
0.264065 -0.0341552 4.13113 59 64 65
0.272419 0.168339 4.11504 26 29 35
0.39038 -0.176764 3.94712 118 129 133
0.318021 -0.0740494 4.06915 126 132 123
0.426482 -0.301787 3.91177 83 85 88
0.364146 0.669128 4.10636 162 150 130
0.325743 0.239324 4.20786 86 87 84
0.335971 0.107611 4.27222 86 81 76
0.381007 0.168332 4.21202 101 100 90
0.385288 0.149758 4.22777 197 186 166
0.357 0.071679 4.31628 178 160 141
0.397795 0.121081 4.27124 174 156 138
0.378858 0.0674606 4.31326 220 213 204
0.428549 0.172427 4.27322 104 103 94
0.429329 0.673076 4.29407 64 72 82
0.448931 0.694547 4.29847 202 190 177
0.433396 0.678165 4.35153 70 76 81
0.440755 0.141666 4.3549 125 124 111
0.377015 0.201492 4.50389 106 106 98
0.431011 0.169219 4.41042 118 119 111
0.484715 0.706247 4.32444 173 159 142
0.520164 0.72585 4.34568 202 190 173
0.53809 0.748352 4.31095 207 192 170
0.544409 0.736356 4.3536 206 192 179
0.685216 0.743805 4.55765 218 208 191
-0.431898 0.774641 3.41734 62 52 49
-0.31823 0.57802 3.55104 207 195 176
-0.237939 0.752389 3.65643 57 59 60
-0.00515987 0.531912 3.99105 157 166 166
0.287423 -0.478809 3.49991 101 99 91
0.312181 -0.542406 3.51965 194 190 186
0.309842 -0.487337 3.53097 102 111 113
0.335606 -0.436107 3.75308 134 148 155
0.380751 -0.368434 3.9133 146 146 144
0.446637 0.704186 4.28803 210 201 192
0.541821 0.804481 4.28068 111 110 99
0.632394 0.758941 4.41754 158 142 134
0.670282 0.787922 4.44463 206 192 172
0.672845 0.777516 4.46323 191 177 154
0.657731 0.736006 4.53941 213 201 185
0.807653 0.82335 4.64709 106 102 92
0.831767 0.837832 4.67253 103 98 88
0.848928 0.82537 4.68911 198 185 164
-0.39565 0.712346 3.44431 184 167 142
0.789113 0.816474 4.64337 96 95 87
-0.415619 0.72903 3.42585 135 117 100
-0.358409 0.762288 3.47202 86 82 75
-0.330155 0.70005 3.49561 106 103 90
-0.25146 0.436362 3.80612 142 122 112
-0.136793 0.535745 3.7394 181 165 146
-0.0922957 0.621571 3.70046 119 119 103
-0.138776 0.405718 3.85161 111 101 98
-0.111999 0.425696 3.84748 100 96 85
0.0558371 0.218707 3.97784 86 89 86
0.0906132 0.315983 3.96441 74 76 75
0.0908346 0.269323 3.97554 111 110 97
0.361955 -0.529162 3.61263 126 131 134
0.181975 0.179732 4.05656 51 51 52
0.37685 -0.512304 3.78062 105 116 121
0.201939 0.175351 4.07435 32 35 42
0.247675 0.248775 4.08176 65 66 63
0.392446 -0.214867 3.90272 131 143 145
0.373868 0.172803 4.19524 186 176 156
0.372021 0.201575 4.20583 82 77 70
0.391889 0.165432 4.22349 193 180 157
0.394049 0.139641 4.23062 210 199 182
0.404329 0.157232 4.23471 207 198 182
0.420843 0.142724 4.2613 193 180 163
0.434274 0.1287 4.28586 171 155 129
0.450608 0.120652 4.32383 134 124 111
0.550589 0.761064 4.32248 146 126 112
0.684831 0.798666 4.44404 109 106 93
0.675209 0.75672 4.47615 113 107 96
0.692343 0.762442 4.49536 108 105 94
0.699435 0.797781 4.48349 98 93 81
0.705069 0.77055 4.50562 134 123 108
0.712898 0.784088 4.50782 116 109 94
0.717761 0.808423 4.51178 144 131 111
0.725852 0.788416 4.52119 178 163 141
0.735453 0.789352 4.53361 128 118 101
0.749444 0.811931 4.54566 99 96 87
0.750352 0.768979 4.64253 213 202 187
0.777843 0.79301 4.61216 178 163 144
0.810593 0.815792 4.63385 190 175 156
0.825758 0.815751 4.65198 178 165 141
-0.269272 0.690355 3.55449 101 97 88
-0.109433 0.645893 3.69097 109 108 100
0.676667 0.750762 4.48527 204 190 167
0.586689 0.792008 4.33985 123 121 108
-0.628006 0.715395 3.30634 97 93 86
-0.621282 0.725724 3.3068 186 173 149
-0.457831 0.548735 3.46584 203 189 169
-0.432971 0.533634 3.45554 215 204 184
-0.320772 0.511179 3.69214 165 151 144
-0.319627 0.499593 3.72446 133 120 112
-0.237367 0.526765 3.68483 212 197 178
-0.29819 0.490422 3.734 156 140 121
-0.292631 0.478769 3.75367 208 198 186
-0.268095 0.48654 3.74046 170 155 146
0.240882 -0.429403 3.44215 141 165 183
0.253593 -0.46076 3.46133 175 168 165
-0.264645 0.432904 3.80544 121 105 95
-0.111398 0.533359 3.72258 188 173 158
0.246923 -0.490065 3.49027 82 84 80
-0.0796474 0.626605 3.71167 117 117 102
-0.220628 0.425636 3.81347 150 133 120
0.269837 -0.45196 3.49003 66 68 72
0.267722 -0.498564 3.49546 200 193 182
-0.0687764 0.62863 3.72478 116 114 100
0.275371 -0.505808 3.4949 122 122 116
0.27835 -0.529052 3.49855 147 142 137
-0.225904 0.406763 3.84098 201 190 171
0.270327 -0.551838 3.51275 162 156 151
-0.172872 0.420211 3.83516 148 130 121
-0.162662 0.399496 3.84823 156 136 121
-0.0923273 0.477428 3.80233 199 186 165
-0.151157 0.396041 3.85035 131 117 110
-0.0804278 0.540545 3.80227 210 201 193
-0.0527665 0.562688 3.78545 70 74 78
-0.133851 0.429486 3.84204 92 87 80
-0.0621224 0.543027 3.80317 79 80 79
0.306093 -0.583478 3.5572 156 150 149
0.295019 -0.43425 3.57664 130 138 134
-0.138876 0.356447 3.88316 108 106 93
-0.101453 0.387509 3.86202 177 159 136
0.274236 -0.617855 3.64524 209 206 203
0.354305 -0.502745 3.62838 83 93 98
-0.0158529 0.254926 3.96103 82 85 86
0.371947 -0.545341 3.69815 104 106 108
0.0157479 0.190501 3.97602 157 166 166
0.0541417 0.253967 3.94984 32 38 42
0.373869 -0.553242 3.71072 75 82 85
0.350559 -0.434733 3.73732 135 149 155
0.110868 0.642741 3.93015 71 70 66
0.0818785 0.260623 3.9582 54 59 65
0.0663447 0.233875 3.9747 22 28 36
0.0904492 0.280016 3.9606 55 55 54
0.0136462 0.178953 4.03466 158 166 166
0.377396 -0.539296 3.76583 55 61 67
0.00817895 0.1867 4.05566 53 61 71
0.365395 -0.596631 3.79546 189 185 181
0.380361 -0.502987 3.82985 85 91 94
0.379226 -0.46567 3.84527 110 121 129
0.106777 0.383203 4.06619 157 166 165
0.10065 0.369279 4.08098 49 58 66
-0.238786 0.116775 4.37776 69 74 76
0.380747 -0.449266 3.87029 155 154 154
0.121884 0.357769 4.08338 33 40 48
0.375273 -0.495688 3.88009 180 176 173
0.37717 -0.475342 3.88813 82 92 97
0.3969 -0.232964 3.88163 132 144 146
0.387265 -0.386911 3.90444 125 132 133
0.372132 -0.197895 3.91991 64 68 67
0.381568 -0.419678 3.9141 180 175 170
-0.192579 0.046994 4.39948 33 37 44
0.365599 -0.470623 3.93168 194 189 185
0.419266 -0.320767 3.89096 185 178 173
0.392102 -0.376716 3.91807 173 174 175
0.384437 -0.39567 3.92915 161 160 157
0.402712 -0.339777 3.91745 182 172 166
0.387019 -0.167349 3.94344 131 144 149
0.364592 -0.131465 3.96357 64 68 67
0.372743 -0.139704 3.97533 121 132 134
0.426427 -0.293162 3.93441 60 63 65
0.243013 0.14388 4.09552 30 37 43
0.390464 -0.171869 3.97069 50 57 62
0.426039 -0.298167 3.94666 160 154 149
0.284246 0.236087 4.07668 44 50 54
0.367002 -0.130823 4.01389 68 72 75
0.328392 -0.081944 4.06788 117 125 126
0.276832 0.144969 4.11227 24 30 38
0.335942 -0.10362 4.0651 62 67 70
0.309734 0.636284 4.09085 77 79 78
0.242366 0.277003 4.16375 157 166 166
0.330602 0.192173 4.14753 121 120 104
0.339144 0.155186 4.17064 181 167 144
0.342697 0.207382 4.23747 120 119 105
0.382087 0.15436 4.20259 169 151 129
0.364941 0.127809 4.22059 179 161 140
0.388281 0.159051 4.20927 212 201 185
0.389155 0.177049 4.20907 109 107 98
0.347179 0.10654 4.25815 86 82 76
0.391909 0.149557 4.21931 198 187 167
0.434715 0.728931 4.18286 200 189 170
0.399837 0.186027 4.23115 187 173 154
0.397229 0.1109 4.26355 171 156 134
0.415935 0.176093 4.24506 191 177 155
0.406042 0.12067 4.26055 174 156 139
0.431853 0.14895 4.2617 169 159 139
0.399832 0.0886565 4.29484 158 137 124
0.486094 0.755551 4.23738 212 203 192
0.455794 0.13724 4.30312 113 111 98
0.457651 0.128158 4.31954 186 171 149
0.447601 0.162088 4.37089 193 180 156
0.631639 0.805417 4.37862 178 164 141
0.661586 0.793504 4.40865 183 170 148
0.68714 0.800714 4.45414 181 166 147
0.712953 0.775379 4.49039 204 191 174
0.693864 0.7413 4.54368 219 210 195
0.725298 0.798445 4.51318 98 92 80
0.756503 0.767483 4.63479 210 197 183
0.762264 0.773052 4.65557 216 208 201
0.829098 0.802302 4.6467 215 205 191
0.832061 0.814204 4.64374 175 160 136
-0.260233 0.448598 3.79778 167 149 132
-0.0988689 0.438347 3.84949 202 189 169
0.445289 0.143726 4.2895 114 110 98
0.598022 0.767714 4.37067 168 152 132
0.705125 0.786029 4.49862 133 117 101
0.428473 0.161571 4.2698 185 173 151
-0.628617 0.75085 3.29903 117 116 103
-0.61691 0.713643 3.30124 98 95 88
-0.61078 0.723748 3.30197 185 172 149
-0.620322 0.700192 3.30795 184 169 146
-0.659405 0.821254 3.32422 107 106 97
-0.590703 0.709873 3.31188 174 160 138
-0.561319 0.717266 3.32126 176 162 140
-0.548246 0.68967 3.33025 182 169 146
-0.543729 0.646666 3.34612 198 186 162
-0.526932 0.836042 3.36834 78 78 77
-0.473403 0.763443 3.38502 71 72 74
-0.499812 0.844737 3.39588 107 95 80
-0.444845 0.762148 3.39545 89 82 75
-0.427173 0.748092 3.40492 183 168 147
-0.43949 0.850447 3.42423 99 95 88
-0.397715 0.788945 3.41216 152 139 120
-0.391207 0.777437 3.42072 182 167 147
-0.388505 0.713901 3.42629 188 174 148
-0.446822 0.546428 3.46009 201 188 165
-0.443175 0.533152 3.46108 215 203 184
-0.369315 0.753901 3.43865 161 147 126
0.237954 -0.401246 3.43871 140 161 178
0.242136 -0.393398 3.4476 143 166 183
-0.329192 0.493274 3.72765 193 181 169
-0.316084 0.486152 3.73626 205 193 178
-0.285956 0.491047 3.73387 200 185 168
0.237817 -0.397799 3.49392 59 66 72
-0.179518 0.533943 3.69293 213 204 191
-0.290154 0.464079 3.76502 167 154 145
0.268551 -0.436525 3.50272 121 126 121
0.281342 -0.447357 3.52998 130 135 124
0.284913 -0.462564 3.53371 90 93 90
0.263143 -0.59813 3.55634 147 139 137
0.0585936 -0.319766 3.6673 61 66 71
0.308707 -0.566453 3.55243 194 189 184
0.32257 -0.541111 3.54906 46 51 56
0.301916 -0.459551 3.57286 58 61 65
-0.192734 0.428497 3.82028 139 122 113
-0.180091 0.425488 3.82349 152 133 122
0.291472 -0.424489 3.60335 102 105 101
-0.0725623 0.526197 3.82282 78 78 73
0.351727 -0.528557 3.6077 96 98 105
-0.135836 0.382045 3.85967 198 183 160
-0.00395638 0.589773 3.80868 61 65 69
0.348926 -0.591284 3.62942 153 150 146
0.360459 -0.558702 3.6258 178 175 176
-0.114401 0.336007 3.88537 208 196 176
0.359227 -0.526007 3.64248 75 87 92
0.0148819 0.567829 3.86359 111 112 105
0.370267 -0.539732 3.68168 85 87 91
0.373916 -0.548959 3.7224 67 75 79
-0.0484703 0.263781 3.9644 98 103 102
0.350515 -0.623523 3.7568 177 170 164
0.0566828 0.0221707 3.9226 118 129 129
0.376104 -0.575991 3.74745 201 198 195
0.382223 -0.561492 3.74815 95 103 107
0.352011 -0.617745 3.76607 120 116 113
0.0486914 0.275324 3.94392 46 48 50
0.357535 -0.608484 3.77735 197 193 192
0.0660243 0.291527 3.94395 120 120 106
0.350097 -0.618774 3.78314 160 151 146
0.0751767 0.2586 3.94286 78 80 82
0.0621207 0.245108 3.9514 80 79 80
-0.015327 0.538164 3.9995 158 166 166
0.0164439 0.171415 3.98638 157 166 166
-0.0164604 0.123117 4.03774 157 166 166
0.0228732 0.186917 4.02467 32 42 56
-0.0308524 0.102119 4.05987 157 165 165
0.102633 0.362407 3.99486 55 61 65
0.378154 -0.258041 3.83886 168 167 164
0.37677 -0.542582 3.85072 104 108 111
0.376776 -0.534236 3.85803 173 168 163
0.389914 -0.252335 3.85969 74 77 76
0.373541 -0.533491 3.87098 98 107 112
0.39259 -0.313323 3.86028 77 81 84
0.391895 -0.326955 3.86495 164 157 153
0.404134 -0.319374 3.86537 199 193 187
0.411632 -0.252505 3.86845 56 59 62
0.386965 -0.407701 3.89235 176 173 170
0.388322 -0.397168 3.91716 104 113 115
0.399691 -0.374383 3.9116 186 186 186
0.392711 -0.355043 3.92868 91 92 96
0.356587 -0.120495 3.97123 64 68 67
0.411844 -0.317711 3.94441 172 164 160
0.160305 0.329845 4.11193 38 45 51
0.36514 -0.116276 4.01601 128 142 149
0.185972 0.304997 4.13284 158 166 166
0.340369 -0.0935531 4.03802 121 131 132
0.3584 -0.11231 4.03113 73 76 76
0.402818 -0.293319 4.00895 78 77 79
0.353397 -0.122093 4.0406 126 134 127
0.346242 -0.113391 4.05375 118 129 131
0.331377 -0.100543 4.08629 121 136 143
0.294509 0.154822 4.11458 34 40 52
0.32203 -0.100536 4.10595 121 134 138
0.237253 -0.0111976 4.17958 58 66 70
0.304706 -0.112003 4.13808 124 139 148
0.321951 0.776871 4.12578 73 75 74
0.262373 0.291103 4.18404 157 166 165
0.236682 -0.0102709 4.20459 125 136 136
0.357658 0.660007 4.13068 204 192 180
0.394549 0.699297 4.13571 177 161 141
0.360674 0.186581 4.17303 116 114 99
0.402932 0.708414 4.14872 109 107 94
0.333059 0.239541 4.19927 91 90 86
0.350136 0.131571 4.19076 207 195 181
0.407173 0.721579 4.15088 116 116 103
0.175538 0.0233999 4.3128 118 130 135
0.364018 0.166002 4.19012 203 191 171
0.428044 0.208255 4.15685 103 99 86
0.368571 0.096594 4.2781 194 182 168
0.428342 0.143382 4.25399 193 180 162
0.4735 0.795724 4.23042 144 140 128
0.435226 0.173434 4.26414 105 103 94
0.441525 0.129334 4.27872 163 147 123
0.528307 0.75633 4.31289 170 154 132
0.569631 0.737924 4.38282 183 173 162
0.686969 0.750377 4.54044 129 114 100
0.356628 -0.583635 3.63884 199 196 195
0.376907 -0.555189 3.69961 82 91 96
0.355751 0.721024 4.10362 83 78 72
0.382837 0.68961 4.12559 116 111 100
0.427813 0.726167 4.1755 192 180 162
0.424976 0.678279 4.36317 63 72 81
0.443969 0.153968 4.28818 167 156 136
0.532839 0.749165 4.32111 207 192 170
0.319698 -0.461773 3.5831 48 51 57
0.577476 0.738328 4.39534 203 193 180
-0.603163 0.714211 3.30421 186 171 148
-0.658077 0.830802 3.31703 103 103 95
-0.532414 0.647413 3.34236 188 174 152
-0.506726 0.832785 3.38568 81 75 71
-0.442811 0.697447 3.40568 73 74 72
-0.433928 0.846122 3.41484 157 166 166
-0.422682 0.643083 3.41196 113 111 95
-0.400074 0.77596 3.41589 192 173 149
-0.427154 0.84786 3.42567 99 94 86
-0.398108 0.726312 3.41809 135 118 102
-0.398092 0.854039 3.4334 158 167 167
-0.387294 0.666495 3.43856 92 88 81
-0.386499 0.635413 3.44166 160 147 123
-0.360301 0.712952 3.44482 172 157 134
-0.380067 0.602024 3.44949 118 112 97
-0.337629 0.737052 3.47327 84 82 77
-0.342086 0.604181 3.48229 123 107 99
-0.326789 0.583992 3.50378 94 84 78
-0.330954 0.569798 3.50728 136 121 108
-0.327772 0.573285 3.5471 198 184 165
0.257256 -0.415701 3.44214 58 66 75
-0.314145 0.549584 3.61024 85 84 79
0.25215 -0.396664 3.45669 81 82 82
-0.29559 0.547148 3.62087 114 102 92
-0.287525 0.535374 3.62009 208 193 173
0.249693 -0.396972 3.48853 61 68 73
0.299196 -0.477808 3.48106 145 139 130
0.295007 -0.531799 3.5029 85 81 83
-0.328751 0.499086 3.71753 141 131 127
0.302317 -0.564664 3.53729 184 177 170
0.296588 -0.592365 3.55256 138 131 130
0.321704 -0.563721 3.54619 187 180 174
0.317589 -0.582426 3.55926 134 128 127
0.325742 -0.572062 3.55772 147 141 139
-0.0989822 0.530171 3.71757 195 181 165
0.335463 -0.569387 3.57452 201 197 194
0.351267 -0.558357 3.5873 199 196 194
-0.0557548 0.558751 3.77514 200 189 174
0.350735 -0.489636 3.65719 78 85 90
-0.108755 0.367064 3.86883 200 187 164
-0.0824149 0.367641 3.87175 110 110 100
-0.00603501 0.695871 3.85581 70 72 72
-0.07782 0.339848 3.892 90 88 83
-0.0552142 0.545831 3.90459 95 93 86
0.0581285 0.64098 3.86608 68 73 76
0.382413 -0.572162 3.75525 103 108 110
0.00872753 0.736763 3.90386 49 50 54
0.380708 -0.530789 3.77024 103 115 122
0.0715636 0.677369 3.91356 82 81 76
0.385109 -0.586344 3.78867 207 203 201
0.380636 -0.586213 3.80231 194 190 187
0.0862749 0.269314 3.94437 86 89 89
0.379894 -0.569035 3.8259 104 110 113
0.00647972 0.170705 3.99199 158 166 166
0.382279 -0.528226 3.84457 105 108 109
0.0894687 0.765333 3.97503 64 65 63
0.00962948 0.170853 4.0026 36 42 55
0.100429 0.267531 3.96983 110 109 97
-0.0121167 0.132217 4.03612 41 46 57
0.386263 -0.417805 3.88288 111 115 115
0.412902 -0.323998 3.87442 220 217 215
0.366665 -0.514388 3.90089 130 129 127
-0.0541775 0.0319023 4.07591 84 91 93
0.366826 -0.493544 3.90574 165 159 155
0.383358 -0.427775 3.90374 102 111 116
0.19079 0.661949 4.00313 65 69 72
-0.039537 0.0550244 4.10296 113 122 124
0.336226 -0.496741 3.95229 184 177 172
0.362767 -0.471206 3.94346 115 112 110
0.360289 -0.465165 3.95205 188 182 177
0.380224 -0.415672 3.94644 102 109 113
0.418982 -0.303782 3.95559 163 156 152
0.362252 -0.115303 3.98354 131 142 144
0.375588 -0.358032 3.98071 168 160 155
0.416581 -0.310052 3.96774 157 150 145
0.357187 -0.105007 3.99463 127 136 133
0.406364 -0.314513 3.981 78 83 86
0.325457 -0.085132 4.05122 125 132 127
0.319478 -0.0693063 4.06039 65 70 71
0.255563 -0.36233 4.09197 164 155 150
0.266043 0.228629 4.09509 57 64 69
0.176565 0.305343 4.13881 157 166 165
0.272375 0.774029 4.10415 80 79 75
0.192086 0.296634 4.13947 157 165 165
0.30027 0.634364 4.09707 86 87 83
0.309449 0.641782 4.11487 67 71 75
0.338809 0.711247 4.1038 184 171 146
0.344909 0.722683 4.11072 81 78 73
0.312238 0.778167 4.13217 75 76 74
0.232851 0.276036 4.17007 157 166 165
0.355048 0.716299 4.11617 175 163 140
0.257379 -0.0406635 4.16839 50 57 62
0.324358 0.664905 4.15294 203 191 176
0.245644 -0.0365262 4.20243 121 133 138
0.327537 0.805568 4.18432 52 52 53
0.392311 0.704005 4.15292 182 167 146
0.256654 -0.239824 4.21607 85 83 87
0.395927 0.72226 4.15855 117 115 103
-0.202858 0.0602333 4.4598 111 118 115
0.268145 -0.20114 4.23094 119 111 111
0.19728 -0.0748521 4.28219 110 120 122
0.334819 0.209474 4.22131 96 92 82
0.417253 0.72768 4.18281 193 181 164
0.190508 -0.0617448 4.29542 105 117 124
0.373507 0.155365 4.20864 170 153 135
0.168299 -0.0161279 4.31498 47 55 63
0.421089 0.73094 4.19321 201 190 173
0.1672 0.0244549 4.31852 113 125 131
0.420911 0.729494 4.20748 186 171 151
0.412828 0.697208 4.21237 143 129 114
0.408064 0.678755 4.23266 209 195 177
0.428761 0.714632 4.22772 128 118 105
0.395326 0.12412 4.25712 221 214 205
0.358884 0.0970164 4.28505 174 159 142
0.459213 0.759359 4.24104 143 132 116
0.456579 0.745487 4.24962 162 145 127
0.428381 0.696855 4.26829 164 152 145
0.471966 0.780671 4.25132 127 116 101
0.477968 0.789973 4.25093 199 189 173
0.475525 0.762492 4.26286 205 194 182
0.450004 0.712893 4.29213 219 210 201
0.502037 0.752239 4.30372 125 114 101
-0.029094 0.00984979 4.5982 197 196 193
0.432545 0.690869 4.35015 210 196 181
0.470054 0.708058 4.33505 171 156 138
0.506466 0.73531 4.32434 159 143 131
0.515484 0.75762 4.32267 169 152 130
0.522254 0.767338 4.32003 210 199 190
0.427479 0.685865 4.37783 207 196 185
0.532178 0.764482 4.33772 145 126 111
0.43792 0.169246 4.3939 119 117 104
0.429874 0.139207 4.41163 191 180 158
0.537007 0.762204 4.353 201 187 172
0.421987 0.134841 4.42316 158 147 127
0.417136 0.154251 4.44176 113 109 97
0.410611 0.142016 4.45393 203 193 176
-0.350801 0.238996 4.89841 76 84 89
0.573548 0.754864 4.39024 164 152 142
0.578902 0.740177 4.42121 169 152 133
0.615607 0.762022 4.42993 164 152 147
-0.0660752 0.139506 4.88553 52 58 64
-0.110138 0.172619 4.95578 83 90 92
-0.11414 0.198424 4.96023 64 71 74
-0.157104 0.230227 4.99531 120 131 134
-0.111826 0.201199 4.97099 125 138 143
-0.0917913 0.189766 4.96576 71 79 83
0.655309 0.759669 4.49396 111 106 94
-0.0662054 0.178757 4.95645 105 113 115
-0.133898 0.230103 5.00231 71 79 84
-0.113622 0.209537 5.0035 141 157 164
-0.0739674 0.204852 5.04513 99 109 115
0.701401 0.755705 4.63457 217 206 192
-0.408306 0.713038 3.42205 182 167 143
0.374878 -0.447585 3.81034 83 90 92
0.229738 0.27785 4.15989 58 66 72
0.342795 0.662617 4.14424 203 191 176
0.423087 0.710569 4.20933 203 192 175
0.438744 0.711167 4.23239 142 130 112
0.511809 0.72749 4.35382 205 194 180
0.606543 0.736533 4.43566 143 131 116
-0.151168 0.426608 3.83742 187 172 150
0.34803 0.709517 4.09955 184 171 146
0.470439 0.757376 4.23519 143 132 116
0.364313 0.698636 4.11487 130 122 109
-0.544423 0.84721 3.36069 157 166 166
-0.412129 0.801953 3.38524 93 81 70
-0.417406 0.747166 3.40185 184 170 149
-0.388779 0.737401 3.41862 147 132 114
-0.417186 0.846469 3.42352 96 93 87
-0.384092 0.747378 3.42136 173 160 138
-0.379128 0.721226 3.43175 102 89 81
-0.363941 0.736721 3.44164 108 105 93
-0.458354 0.532633 3.46184 213 200 180
-0.343772 0.688631 3.46002 176 162 141
-0.346396 0.846853 3.47606 86 85 79
-0.325926 0.688823 3.47303 115 111 97
-0.338307 0.553846 3.51089 137 127 123
-0.292546 0.618116 3.51789 146 135 116
0.263704 -0.463162 3.45804 160 162 167
0.312039 -0.52271 3.5084 52 54 59
0.317529 -0.502085 3.51535 112 121 121
0.321722 -0.512622 3.51905 49 54 58
0.261338 -0.418079 3.54261 101 99 91
0.312742 -0.563256 3.53421 184 178 172
-0.240486 0.56006 3.63262 214 201 182
-0.254392 0.530827 3.64189 213 199 181
-0.237498 0.549481 3.64113 96 92 86
0.279092 -0.603996 3.55695 187 181 178
0.336854 -0.538915 3.5528 54 58 64
-0.210364 0.556412 3.64886 212 198 177
0.322954 -0.477979 3.56178 52 57 63
0.341612 -0.531324 3.56209 48 54 58
0.305477 -0.430055 3.58093 81 79 72
0.362855 -0.549131 3.58977 53 59 63
0.281272 -0.647568 3.61528 208 204 202
0.375064 -0.541043 3.61028 60 65 71
-0.0777206 0.528085 3.711 200 188 172
0.360769 -0.58022 3.62718 144 142 142
0.37546 -0.587982 3.67075 215 213 210
-0.232518 0.438229 3.80721 191 176 154
0.382796 -0.561192 3.71164 90 97 100
0.378324 -0.578083 3.71481 96 104 107
-0.198206 0.402284 3.84008 207 193 174
0.362548 -0.432879 3.73022 133 148 155
0.385 -0.56391 3.72535 170 167 163
0.363419 -0.617844 3.72909 139 133 130
0.346984 -0.639425 3.73723 200 195 192
0.377693 -0.538906 3.73244 101 105 109
-0.0821628 0.459923 3.85368 106 101 90
0.367609 -0.584553 3.76386 209 206 205
0.384615 -0.574426 3.76574 124 122 120
0.356452 -0.601327 3.79939 175 173 170
0.384206 -0.492978 3.83214 147 145 144
0.38322 -0.531651 3.83381 92 99 102
0.386647 -0.510373 3.84366 129 130 130
0.0332785 0.250581 3.94148 154 163 163
0.356343 -0.175611 3.86488 134 147 151
0.401649 -0.25276 3.85457 87 91 88
0.423156 -0.274605 3.86164 100 109 114
0.0501091 0.223726 3.96353 35 41 53
0.372801 -0.506949 3.88869 182 176 171
0.01408 0.181135 3.99012 43 50 63
0.426037 -0.311897 3.89466 169 163 159
-0.00114385 0.159441 4.007 158 167 166
0.376321 -0.47038 3.91097 142 141 140
0.353592 -0.503393 3.91699 112 114 114
0.365096 -0.490398 3.91529 166 162 159
0.368547 -0.47952 3.91612 166 160 157
0.392494 -0.385924 3.91409 197 192 185
-0.0190051 0.592774 4.03259 158 167 166
0.410991 -0.331256 3.92583 86 86 86
0.383476 -0.406571 3.93289 112 122 125
-0.00384345 0.168427 4.03635 57 66 73
-0.00431546 0.180129 4.04993 158 167 166
0.373656 -0.42584 3.94877 152 149 146
0.38463 -0.383237 3.95142 97 104 105
0.362801 -0.455089 3.95701 106 115 119
0.0555538 0.161451 4.05579 158 167 167
0.352433 -0.428245 3.97896 167 161 157
0.349314 -0.442367 3.98193 100 109 111
0.402581 -0.305014 3.98683 106 99 99
0.0898823 0.379153 4.07647 157 166 166
0.358464 -0.367394 4.00336 178 170 167
0.345671 -0.092958 4.01436 89 97 97
0.295632 -0.0521171 4.03488 93 103 105
0.330281 -0.0838632 4.0331 89 95 95
0.347734 -0.101422 4.03526 131 142 145
0.150783 0.330548 4.1174 37 44 51
0.295077 -0.0498361 4.09568 117 126 124
0.323756 -0.101498 4.09422 96 106 109
0.345544 -0.292268 4.08973 153 149 146
0.298158 -0.274776 4.15068 175 171 167
0.323583 -0.200144 4.14689 96 94 97
0.260342 0.263794 4.16941 106 105 96
0.233631 -0.0412249 4.17953 50 57 62
0.224926 -0.00946757 4.18811 50 57 61
0.225737 -0.00905294 4.21069 124 135 136
0.244341 -0.0591242 4.20587 134 149 156
0.237922 -0.0386353 4.20978 77 81 79
0.234133 -0.0212846 4.21251 129 144 150
0.302419 0.247868 4.19443 84 85 82
0.409357 0.698848 4.17343 207 197 181
0.280138 -0.213434 4.2093 124 113 112
0.239938 -0.240369 4.22413 89 84 88
0.348367 0.21046 4.21466 92 91 81
0.421041 0.7142 4.1952 207 195 179
0.380137 0.18013 4.21462 109 108 100
0.181129 -0.0615814 4.28022 103 114 119
0.164278 0.00385063 4.31492 122 136 143
0.155272 0.031174 4.32278 65 74 78
0.161826 0.0174691 4.32713 52 58 64
0.384843 0.20779 4.25585 92 92 87
0.40651 0.178442 4.25096 190 176 153
0.412408 0.159176 4.26065 121 121 105
0.347666 0.0927971 4.28883 81 78 72
0.421433 0.151826 4.26829 164 155 136
0.444645 0.140167 4.31001 114 112 99
0.447071 0.139897 4.32382 106 105 97
0.00108738 -0.0153171 4.49596 66 73 76
-0.00318281 -0.0061132 4.50435 65 71 75
0.494704 0.723184 4.33305 200 186 172
-0.0229289 -0.00498726 4.55472 175 174 171
-0.036638 0.00570335 4.58526 118 131 135
-0.0524548 0.0166125 4.61918 207 204 200
0.413112 0.162054 4.44743 136 120 105
-0.0660973 0.0310765 4.64439 101 109 108
-0.074546 0.0451004 4.67991 194 193 191
-0.0821622 0.0642098 4.70633 88 94 94
-0.0961563 0.0757257 4.72721 64 71 78
-0.0809765 0.0701469 4.73507 79 86 90
-0.0990264 0.107722 4.77579 126 138 137
-0.0837413 0.0933076 4.7727 143 143 143
-0.102884 0.113672 4.80364 51 56 61
-0.115675 0.139617 4.84289 121 131 131
-0.113181 0.143434 4.86542 47 51 54
-0.0901244 0.130602 4.87085 60 67 72
-0.138324 0.169246 4.89393 74 81 84
-0.178076 0.195188 4.91481 120 131 133
-0.211736 0.219319 4.94013 61 67 71
-0.121961 0.161641 4.90113 45 50 55
-0.191174 0.20738 4.94346 76 85 90
-0.0922568 0.141874 4.90168 51 57 62
-0.156474 0.194525 4.93763 70 80 84
-0.132952 0.188275 4.95379 46 51 59
-0.139673 0.202905 4.96674 127 138 139
-0.218261 0.235088 5.0082 90 96 99
-0.140534 0.193345 4.97609 75 82 85
-0.141089 0.203914 4.98948 122 134 139
-0.142715 0.208294 5.00008 96 107 111
-0.172171 0.233566 5.02665 67 76 81
-0.159003 0.21285 5.0325 141 156 163
-0.0957517 0.193039 5.04648 157 166 165
-0.0890941 0.529441 3.7129 200 188 172
0.358272 -0.510503 3.67104 42 48 53
0.372929 -0.594887 3.73694 146 142 138
0.364789 -0.598701 3.76365 111 109 109
0.392946 -0.348625 3.93755 95 90 91
0.294459 0.776566 4.11907 70 70 69
0.303295 0.625392 4.13809 62 72 81
0.366739 0.211942 4.2075 83 81 73
0.416731 0.672195 4.29963 66 76 86
0.429362 0.697716 4.31281 210 201 194
0.583523 0.757427 4.40071 152 137 125
0.667781 0.752192 4.55732 129 115 102
0.549614 0.750628 4.35797 151 136 127
-0.676722 0.834666 3.3192 106 105 98
0.356542 0.193725 4.18026 116 111 96
0.412844 0.705903 4.1668 144 133 118
0.473213 0.740912 4.24522 162 145 128
-0.405026 0.74543 3.40082 179 166 145
0.270532 -0.401505 3.43032 144 166 182
0.264612 -0.393918 3.44275 144 167 184
0.281346 -0.438658 3.45188 63 69 78
0.274835 -0.455865 3.45194 140 163 181
0.280326 -0.448047 3.45649 149 141 143
0.282629 -0.462364 3.4637 64 72 82
0.277555 -0.421586 3.47076 84 85 86
0.28831 -0.487813 3.47841 140 165 183
0.293724 -0.452032 3.48511 67 70 73
-0.315361 0.577549 3.49671 181 168 148
0.298261 -0.456037 3.49952 113 120 118
0.323873 -0.496033 3.50983 64 69 72
0.331967 -0.499173 3.52128 105 114 118
0.335931 -0.533616 3.52248 131 130 128
0.326032 -0.546256 3.52222 153 147 144
0.304087 -0.446225 3.52423 129 134 124
0.315634 -0.469449 3.52696 111 119 118
0.337692 -0.517838 3.52893 91 98 102
0.341005 -0.529037 3.53061 91 98 100
0.336931 -0.54303 3.5306 173 168 162
0.326999 -0.561355 3.53224 180 174 168
0.261433 -0.403757 3.53623 144 167 184
0.272482 -0.417884 3.54104 99 97 88
0.32444 -0.481149 3.54349 93 97 94
-0.244069 0.686739 3.56053 73 72 69
0.338767 -0.561044 3.54304 186 179 171
-0.23917 0.623314 3.56118 135 128 111
0.350007 -0.537447 3.55089 58 61 65
0.337542 -0.486051 3.55382 103 113 116
0.334242 -0.579718 3.5561 125 117 115
0.337725 -0.476537 3.55962 55 60 64
0.352826 -0.530001 3.56044 51 57 60
0.357159 -0.548226 3.56169 153 150 147
0.324274 -0.45866 3.56686 54 58 62
0.365727 -0.54846 3.56746 165 159 156
0.368058 -0.543619 3.57664 44 50 55
0.369482 -0.555697 3.58353 187 182 180
0.371876 -0.539428 3.58687 119 117 118
0.308542 -0.427628 3.59022 98 102 99
0.334428 -0.441938 3.59051 128 136 133
0.387109 -0.549445 3.59662 141 140 142
0.388479 -0.539037 3.60812 61 66 73
0.3797 -0.528029 3.60879 144 147 148
0.378762 -0.558695 3.61331 109 105 106
0.375926 -0.521681 3.62497 91 102 106
0.383741 -0.548145 3.62543 42 49 55
0.356282 -0.457431 3.62982 112 123 128
-0.196051 0.5417 3.6566 198 181 159
0.351199 -0.447467 3.63199 129 140 141
0.383349 -0.557058 3.63329 79 81 85
0.385553 -0.544018 3.63994 80 89 95
0.358247 -0.452187 3.64828 130 143 147
0.387845 -0.551629 3.64684 56 62 66
0.364033 -0.487982 3.65393 76 83 88
-0.0920966 0.640502 3.68725 110 110 101
0.390076 -0.554357 3.6656 73 80 85
0.391975 -0.563496 3.67293 105 115 121
0.294429 -0.627847 3.67527 187 182 178
0.385992 -0.536954 3.67907 100 100 104
0.39145 -0.572516 3.67955 202 198 196
0.389744 -0.557625 3.68544 87 95 100
0.386945 -0.542523 3.69394 105 107 107
0.364672 -0.459212 3.70253 133 142 142
0.39035 -0.549702 3.7062 75 82 85
0.388251 -0.575985 3.71296 94 102 105
-0.115406 0.532272 3.75281 107 96 87
0.387697 -0.545643 3.71821 67 76 80
0.371061 -0.470304 3.72329 70 76 77
0.374012 -0.615343 3.72707 142 137 133
0.384364 -0.592261 3.73473 134 131 129
0.372202 -0.473643 3.73717 56 61 66
-0.0958264 0.534083 3.77763 158 140 123
0.384557 -0.493905 3.75811 90 98 104
0.38904 -0.536177 3.76206 55 61 66
0.391075 -0.527988 3.76793 104 115 122
0.384306 -0.484234 3.76914 58 63 67
0.394215 -0.55723 3.77258 139 135 130
-0.165874 0.437186 3.82223 171 155 138
0.0117681 0.588506 3.82059 55 63 72
0.396441 -0.583439 3.78599 209 206 204
0.383063 -0.458449 3.79314 91 99 106
0.385293 -0.444594 3.80761 83 90 92
-0.0820012 0.437929 3.8558 101 99 92
0.0368347 0.586891 3.85074 66 69 72
-0.0435282 0.519089 3.85964 108 107 96
0.392582 -0.555181 3.81558 160 156 152
-0.086835 0.820707 3.87759 107 106 98
0.391072 -0.255822 3.83605 169 169 168
0.386309 -0.302817 3.84137 152 152 150
0.387417 -0.542619 3.8411 116 117 117
0.38571 -0.424283 3.84299 147 149 149
0.386819 -0.243936 3.84682 154 156 156
0.426759 -0.291588 3.85895 152 150 147
0.385534 -0.514724 3.86331 98 108 112
0.390003 -0.439086 3.86708 102 111 116
0.3774 -0.522906 3.87246 178 173 169
0.383828 -0.491551 3.87584 185 181 178
0.380523 -0.354746 3.87967 82 94 106
0.38345 -0.465424 3.88239 64 69 74
0.391376 -0.340909 3.88719 192 186 181
0.403844 -0.217942 3.89023 130 140 140
0.388921 -0.453461 3.89032 121 127 129
0.435311 -0.287455 3.89391 103 98 98
0.396855 -0.401694 3.90194 195 193 190
0.048735 0.221628 3.94368 157 166 166
0.428071 -0.312013 3.90576 184 177 172
0.09257 0.292754 3.94669 46 50 60
0.39044 -0.185688 3.9212 131 140 133
0.41717 -0.327532 3.9177 134 125 119
0.426601 -0.312173 3.91767 186 179 175
0.400236 -0.373087 3.92359 128 138 144
0.373788 -0.464735 3.92827 197 192 188
0.400481 -0.382828 3.93207 200 198 196
0.400717 -0.177141 3.9398 110 120 124
0.345256 -0.498624 3.94148 198 192 188
0.369179 -0.46322 3.94072 198 193 189
0.398875 -0.370899 3.94199 100 111 115
0.384062 -0.396642 3.9452 140 144 146
0.37662 -0.139578 3.95004 67 74 73
0.0987399 0.228943 3.98453 77 82 83
0.427371 -0.279524 3.94563 57 62 65
0.371419 -0.441008 3.96019 173 168 163
0.375986 -0.378353 3.96049 161 159 156
-0.0216579 0.613072 4.02104 157 166 166
0.362204 -0.414044 3.98061 102 106 108
0.12147 0.240417 4.01612 122 123 111
0.349674 -0.413241 3.99101 91 98 102
0.368155 -0.366328 3.99137 120 115 111
0.343484 -0.403331 4.00553 108 111 111
0.322375 -0.38653 4.02896 115 119 121
0.214311 0.159367 4.05926 56 62 69
0.393994 -0.278567 4.0348 59 61 66
0.202566 0.170525 4.06548 63 70 72
0.38884 -0.269976 4.03788 60 62 66
-0.0417382 0.100092 4.10201 50 57 64
0.227997 0.157342 4.07256 52 58 63
-0.0562776 0.0297868 4.11917 61 64 64
0.286081 -0.352839 4.07678 179 172 170
0.133498 0.339814 4.10993 60 70 75
0.319038 0.638374 4.11083 66 71 76
0.333273 -0.273239 4.10866 85 82 83
0.372964 0.69347 4.12482 117 117 106
0.324109 -0.271806 4.12291 143 140 138
0.239757 -0.013124 4.1655 111 118 114
0.159344 0.0474703 4.19134 92 100 100
0.256537 -0.189594 4.24337 56 60 64
0.238984 -0.200224 4.25428 44 49 54
0.230808 -0.174159 4.27777 116 108 108
0.222266 -0.175042 4.28661 75 73 77
0.364258 0.110218 4.26617 196 180 164
0.436053 0.703529 4.26123 222 214 205
0.180101 -0.182711 4.314 93 90 93
0.150924 0.0323195 4.33369 101 113 118
0.463246 0.705571 4.28196 218 210 200
0.435076 0.146216 4.29501 112 109 97
0.337382 0.0556017 4.33375 49 54 61
0.493009 0.730098 4.3175 160 144 133
0.478093 0.717284 4.34143 208 200 193
0.523431 0.751639 4.3341 204 190 169
0.380404 0.191652 4.42381 104 103 94
-0.00679348 -0.0279211 4.5123 115 126 129
-0.018677 -0.0148168 4.53752 112 123 126
0.561306 0.74397 4.405 202 187 173
-0.0307097 0.00815612 4.57298 188 188 186
-0.143743 0.0346313 4.61245 44 51 59
0.592018 0.735911 4.44288 143 131 116
-0.0508881 0.00799977 4.60289 206 205 202
-0.0575187 0.0265076 4.62393 114 124 124
-0.159916 0.0968919 4.7046 104 115 118
-0.0848208 0.0614688 4.69375 74 80 82
-0.150018 0.10228 4.71253 27 33 42
-0.128661 0.0896526 4.71024 54 63 69
-0.0963591 0.0975534 4.75047 128 139 141
-0.177166 0.154921 4.83167 30 35 43
-0.10876 0.129955 4.83113 52 57 61
0.649312 0.741965 4.60675 180 166 148
-0.398779 0.765632 3.4144 183 159 133
0.264827 -0.410533 3.43289 64 69 77
-0.370481 0.740242 3.43198 114 113 99
-0.340804 0.758066 3.46464 85 81 76
-0.336344 0.674668 3.46916 171 158 138
-0.310722 0.69521 3.48804 109 106 94
0.309464 -0.491405 3.50619 127 136 137
0.327816 -0.50776 3.52539 56 62 66
0.314553 -0.453665 3.54948 125 128 110
0.331341 -0.486362 3.56373 127 136 134
0.371958 -0.524388 3.63809 73 85 91
0.384522 -0.547068 3.68145 60 67 72
-0.0530512 0.0770006 4.08204 158 167 167
0.29618 -0.110125 4.14317 125 142 151
0.502446 0.727 4.35899 201 188 171
-0.0876073 0.102878 4.80549 67 72 76
-0.0918435 0.123144 4.85299 68 76 80
-0.147877 0.202496 4.98143 66 73 75
0.265847 -0.421819 3.47056 84 85 86
0.327273 -0.518768 3.52889 91 98 102
0.324687 -0.48914 3.5497 55 60 64
0.358541 0.683889 4.1163 190 179 160
0.381262 0.701371 4.13812 119 114 101
0.44024 0.717769 4.24076 139 127 109
0.468323 0.756027 4.25114 209 199 187
0.253088 -0.417296 3.43035 143 167 184
-0.362191 0.768385 3.43943 102 100 90
0.450244 0.714492 4.24435 202 191 173
0.0335647 0.105448 4.25994 157 166 167
0.266618 -0.43609 3.43413 143 166 184
0.273616 -0.464937 3.45607 148 164 178
0.321624 -0.526283 3.51166 72 70 74
0.322637 -0.536419 3.51457 74 76 81
0.304534 -0.564537 3.52119 133 126 125
0.33171 -0.505092 3.53473 97 107 111
0.348824 -0.549601 3.5553 74 80 83
0.346503 -0.565046 3.56885 158 154 150
0.219566 -0.366878 3.56919 147 169 186
-0.365552 0.536501 3.51071 199 195 193
0.373341 -0.555627 3.59999 162 161 162
0.359522 -0.576874 3.59902 197 192 186
0.350359 -0.460274 3.61624 62 66 68
0.385008 -0.578531 3.65333 201 197 195
0.320382 -0.62257 3.67457 188 183 178
0.390486 -0.598552 3.68803 213 211 208
-0.238973 0.539124 3.6441 205 190 169
-0.102218 0.717213 3.6641 90 89 85
0.375229 -0.457018 3.70218 130 141 143
-0.0563339 0.580012 3.7215 201 188 165
0.358589 -0.6093 3.7652 201 198 196
0.387554 -0.538127 3.77185 130 134 138
0.215615 -0.114688 3.7773 66 74 78
-0.0595027 0.549228 3.76784 197 182 162
0.347537 -0.605998 3.79952 211 209 206
-0.100431 0.483461 3.78732 202 187 166
0.35628 -0.375747 3.84417 62 66 69
0.409728 -0.263747 3.85406 131 144 149
0.385102 -0.501981 3.85593 115 117 118
0.431775 -0.282723 3.86266 50 52 56
-0.108192 0.416346 3.8515 110 109 101
0.432987 -0.308739 3.88524 178 171 165
-0.0841902 0.417488 3.88285 107 104 93
0.424495 -0.323606 3.90252 156 147 140
0.369381 -0.503897 3.89931 170 165 160
0.434761 -0.294824 3.90741 56 57 61
0.391911 -0.4129 3.91826 200 195 191
0.392517 -0.390175 3.92626 160 159 155
0.404503 -0.362615 3.92907 168 167 166
0.0389058 0.274809 3.92428 158 166 166
0.364176 -0.491251 3.9287 145 140 136
0.357922 -0.482896 3.92857 197 192 190
0.433653 -0.290703 3.94242 171 164 160
0.0893725 0.268273 3.96167 37 41 47
0.0785809 0.31615 3.96442 57 61 64
0.420136 -0.30028 3.96983 97 98 100
0.0335383 0.831089 3.97575 67 71 71
0.352698 -0.450233 3.9705 100 106 109
0.339328 -0.458072 3.98187 201 195 191
0.368565 -0.108299 3.99322 82 83 82
0.407413 -0.290788 3.99465 135 130 127
0.408616 -0.279439 3.99888 115 110 109
0.338607 -0.411964 4.00276 163 156 150
0.331879 -0.427011 4.00449 171 164 160
-0.0279199 0.489032 4.01101 90 88 82
0.357035 -0.380415 4.00853 86 91 91
0.340714 -0.387195 4.01076 150 143 137
0.328566 -0.382009 4.01923 98 105 106
-0.110283 0.624667 4.03085 158 167 166
0.0649168 0.38981 4.04227 47 54 57
0.318788 -0.375971 4.0376 109 109 111
-0.028925 0.126873 4.03947 157 166 166
0.292529 -0.393503 4.05579 133 130 130
-0.0418887 0.100426 4.06136 158 167 167
0.279976 0.192749 4.07847 58 65 74
0.108836 0.35397 4.09111 33 39 47
0.337068 -0.300685 4.09007 108 107 107
0.340387 0.644817 4.11278 205 191 173
0.337061 -0.2882 4.10182 110 108 109
0.281371 -0.299561 4.15239 119 123 124
0.282281 -0.277333 4.16336 177 174 169
0.284718 -0.266815 4.16483 101 95 95
0.341428 0.157674 4.18291 154 144 122
0.226519 -0.2974 4.18535 114 117 118
0.434357 0.723851 4.20404 189 176 155
0.233896 0.000907725 4.20359 118 129 134
0.281018 -0.200124 4.20385 42 47 52
0.358834 0.223284 4.2315 65 66 64
0.362728 0.208874 4.26142 87 87 82
0.229194 -0.188884 4.2645 54 57 61
0.169455 -0.0597929 4.29112 35 41 48
0.177116 -0.0578664 4.30045 102 114 120
0.149658 -0.0535074 4.31106 36 42 48
0.1589 -0.013968 4.31141 47 53 61
0.412775 0.17292 4.32789 126 120 105
0.353113 0.0897925 4.34422 225 218 208
0.424568 0.120807 4.39214 154 140 118
0.418494 0.172807 4.42222 117 117 104
0.017219 0.0059378 4.47028 40 46 51
0.0146733 -0.0221538 4.47171 151 142 136
0.025152 -0.0110131 4.47164 150 142 137
0.387618 0.203543 4.45127 100 98 90
-0.0150515 -0.0109107 4.50013 60 65 68
-0.0174967 0.000390894 4.50862 44 50 55
-0.0187815 -0.0258452 4.51516 114 124 128
0.407136 0.180863 4.48055 120 119 105
-0.0306767 -0.0126502 4.54044 111 122 125
-0.0421317 0.00224525 4.55233 93 101 100
-0.119422 0.043163 4.57478 104 113 113
-0.0473052 0.0102381 4.57713 191 190 187
-0.0528957 0.00996893 4.58987 119 131 135
-0.119389 0.0313421 4.60317 65 74 78
-0.0730932 0.0329383 4.62568 180 179 175
-0.0795054 0.0370338 4.63931 173 174 170
-0.0838973 0.0307164 4.65193 209 206 201
-0.340168 0.140539 4.69306 53 60 64
-0.0863867 0.040026 4.6672 208 206 203
-0.0955699 0.0503967 4.68572 196 195 194
-0.109078 0.0637944 4.70044 70 77 79
-0.169242 0.104783 4.71786 29 34 42
-0.148761 0.0926245 4.71584 54 63 68
-0.113593 0.0819667 4.73245 63 70 78
-0.161143 0.115243 4.74639 108 121 128
-0.092843 0.0750747 4.76095 158 167 167
-0.285 0.161706 4.80783 65 73 77
-0.109859 0.0989619 4.78089 142 143 143
-0.482363 0.241892 4.86003 87 94 98
-0.124543 0.119582 4.81063 51 56 60
-0.177322 0.141614 4.8199 41 50 56
-0.503381 0.251888 4.88446 92 99 102
-0.198834 0.157969 4.83826 28 33 41
-0.127242 0.132916 4.83685 52 56 60
-0.115941 0.128423 4.86064 69 76 80
-0.228701 0.195613 4.88823 122 135 140
-0.262451 0.21055 4.89927 125 137 141
-0.415972 0.259007 4.93727 158 166 166
-0.141685 0.156401 4.88613 52 57 62
-0.330595 0.236915 4.92301 84 93 101
-0.194792 0.185751 4.9027 115 127 131
-0.165682 0.175748 4.90318 78 85 87
-0.151154 0.167998 4.9113 51 55 59
-0.216412 0.207738 4.92489 64 70 73
-0.121305 0.148232 4.91208 51 57 62
-0.230615 0.218336 4.93477 125 138 141
-0.155563 0.175402 4.92281 53 59 66
-0.205242 0.20206 4.93312 76 85 88
-0.158657 0.184977 4.9333 128 138 140
-0.230308 0.217995 4.95444 109 121 126
-0.151744 0.180718 4.94002 42 47 53
-0.219933 0.213804 4.95406 84 93 97
-0.121379 0.165921 4.9364 112 110 109
-0.162165 0.194803 4.96409 47 53 60
-0.170501 0.202707 4.98782 70 77 80
-0.127552 0.188997 4.98737 107 114 117
-0.166791 0.210255 4.99919 124 136 141
-0.286647 0.250874 5.02737 89 97 103
-0.127214 0.195899 5.00257 118 125 128
-0.148066 0.203586 5.00959 72 79 82
-0.163105 0.210374 5.01329 131 145 151
-0.184825 0.223641 5.02281 129 141 144
-0.1765 0.215252 5.02403 131 145 152
-0.189165 0.221961 5.04753 140 154 161
0.291093 -0.436984 3.4965 121 126 121
0.329915 -0.462958 3.58136 64 65 66
0.370689 -0.501608 3.62469 86 97 101
0.307005 -0.624934 3.67308 188 183 178
0.387295 -0.509607 3.77739 102 112 118
0.393023 -0.528793 3.83165 93 100 103
0.405125 -0.209892 3.89758 133 144 145
0.409002 -0.209879 3.90761 93 100 102
0.463966 0.748204 4.2393 211 202 186
0.393122 0.187362 4.42132 115 114 103
-0.0847395 0.0498766 4.68421 196 195 194
-0.134988 0.0954334 4.72151 113 125 129
-0.129235 0.144816 4.84907 117 127 128
-0.192827 0.201117 4.93072 76 85 88
-0.109138 0.165049 4.93398 112 110 109
-0.11416 0.18798 4.98456 107 114 117
0.375038 0.207689 4.26085 87 87 82
0.431374 0.151627 4.27512 125 121 108
0.401501 0.698544 4.15006 183 168 146
0.585524 0.732968 4.41579 100 97 87
0.307656 -0.490026 3.48163 141 165 183
0.303613 -0.495363 3.49362 210 202 191
0.341949 -0.494208 3.55858 58 62 65
0.333958 -0.471722 3.56891 88 96 101
0.378612 -0.548926 3.58897 57 61 65
0.380732 -0.536882 3.59259 48 53 60
0.36856 -0.568673 3.5934 181 174 168
-0.496663 0.711905 3.38723 70 73 72
-0.440525 0.712184 3.41574 184 170 148
0.390051 -0.552967 3.61816 155 149 149
0.376676 -0.571582 3.61742 108 104 106
0.392629 -0.552607 3.63377 147 145 146
-0.370932 0.758304 3.46144 91 88 81
-0.37525 0.737198 3.46156 83 81 79
-0.369102 0.675369 3.46566 165 152 132
0.392912 -0.575422 3.64799 195 190 187
0.367947 -0.469041 3.65293 54 60 64
-0.435187 0.528608 3.46739 201 186 165
-0.363449 0.551437 3.50717 129 117 113
0.395817 -0.543929 3.68257 57 64 69
-0.384056 0.536662 3.50827 193 189 187
-0.290606 0.688235 3.53562 70 70 68
-0.379566 0.551856 3.51481 216 208 200
-0.39598 0.533135 3.51361 115 102 99
0.344322 -0.617563 3.67729 191 185 181
0.395498 -0.56221 3.70624 163 160 156
0.396835 -0.553577 3.71287 170 165 159
0.39748 -0.561117 3.72452 166 163 159
0.373996 -0.432113 3.72942 135 149 156
-0.268861 0.741284 3.61055 68 72 73
0.373764 -0.617875 3.73674 98 101 102
0.388021 -0.573484 3.74692 199 194 191
-0.359946 0.544764 3.59935 192 175 155
-0.160191 0.624658 3.65676 124 124 113
0.366753 -0.61754 3.75604 201 198 196
0.382113 -0.585729 3.76109 196 194 193
0.397178 -0.571034 3.76497 125 124 121
-0.248671 0.747317 3.64858 67 69 69
0.390841 -0.580203 3.77738 208 204 201
0.39737 -0.581053 3.80043 218 215 213
0.391715 -0.57978 3.81001 217 215 213
-0.0396937 0.599058 3.75325 94 97 94
0.393975 -0.497153 3.82682 87 94 96
-0.154667 0.535885 3.72941 156 144 131
-0.0994108 0.54862 3.74336 174 157 141
0.352781 -0.376817 3.83271 66 73 81
0.393342 -0.523641 3.84342 104 107 107
-0.136386 0.531725 3.75225 110 100 90
-0.148769 0.725444 3.7568 68 72 72
0.372224 -0.57496 3.84327 187 180 174
0.4338 -0.30172 3.8643 85 79 79
0.426528 -0.251603 3.86709 60 62 64
0.430769 -0.314824 3.87314 143 131 126
-0.115457 0.53356 3.7771 164 147 130
0.398586 -0.336975 3.87306 197 192 188
-0.0749693 0.553013 3.79485 77 83 88
0.394605 -0.325631 3.88028 183 174 167
-0.100196 0.526097 3.79906 119 109 96
0.0264687 0.660996 3.83231 68 69 67
-0.0927778 0.514751 3.8076 194 183 164
-0.0829419 0.522177 3.82097 80 79 74
0.384522 -0.463266 3.89861 100 107 109
0.39264 -0.41834 3.90598 105 113 117
0.436182 -0.303464 3.91705 178 171 166
0.375339 -0.488239 3.90456 180 174 169
-0.0919883 0.491977 3.83259 97 98 93
0.408653 -0.199029 3.91668 73 76 78
0.402144 -0.188293 3.92265 70 73 74
0.396536 -0.159993 3.93921 128 142 149
0.366904 -0.144055 3.93613 90 99 99
0.0372484 0.287158 3.91604 158 167 167
0.399185 -0.325394 3.98263 199 196 194
0.387679 -0.339686 3.98806 140 131 129
0.34653 -0.447079 3.99375 181 176 171
0.328884 -0.458004 3.99313 145 139 135
0.132673 0.0251474 3.97462 93 107 117
0.107427 0.28237 3.98124 116 116 106
0.324293 -0.405386 4.02076 107 109 110
0.33537 -0.110797 4.03579 79 81 80
-0.0469654 0.490113 4.01061 90 89 83
0.354479 -0.278403 4.08393 70 68 71
0.328264 -0.172042 4.09056 48 54 59
0.280745 -0.372333 4.08601 201 200 200
0.254049 -0.340125 4.14346 89 98 103
0.286146 -0.243046 4.1772 53 57 60
0.17342 0.0988435 4.17815 158 166 167
0.280913 -0.222474 4.18788 71 72 76
0.25037 -0.0638666 4.1886 43 48 53
0.20678 -0.000122664 4.20435 120 129 129
0.310726 0.214536 4.21996 113 111 99
0.270532 -0.210114 4.21107 131 119 117
0.39514 0.160092 4.23842 201 188 165
0.261043 -0.194067 4.22554 54 60 64
0.193123 -0.237759 4.22891 99 90 90
0.235039 -0.212352 4.25135 131 121 119
0.167919 0.0244853 4.28377 66 73 75
0.21707 -0.165883 4.28829 126 119 119
0.16325 -0.0506969 4.29461 56 60 65
0.15258 -0.029026 4.30449 119 130 134
0.164376 -0.00611488 4.30656 69 77 83
0.154874 0.014456 4.30992 115 127 130
0.166251 -0.0521617 4.31019 32 39 46
0.443583 0.688914 4.34766 209 197 181
0.151803 0.00727862 4.31726 120 135 141
0.144129 0.0346702 4.32478 65 72 76
0.137758 0.0377923 4.33185 53 58 62
0.179676 -0.129483 4.33876 56 60 64
0.41093 0.684847 4.37983 210 197 182
0.135173 -0.115058 4.37232 67 67 72
0.426414 0.170549 4.39653 112 108 93
0.128369 -0.0813092 4.39274 53 59 63
0.41853 0.138627 4.41409 155 143 120
0.374532 0.198637 4.42794 94 92 84
0.396318 0.163223 4.47326 210 199 179
-0.000393875 -0.042361 4.46822 145 134 128
0.377265 0.170028 4.49604 217 207 189
-0.0126121 0.00686476 4.49668 135 125 123
-0.0248383 -0.0090721 4.50118 59 63 66
0.386934 0.206936 4.52306 201 187 167
-0.0221745 -0.0118545 4.51469 149 151 148
-0.0557044 0.00522131 4.58095 146 149 148
-0.125977 0.175812 4.60038 158 166 166
-0.125788 0.163721 4.60049 65 71 77
-0.272103 0.102654 4.64426 28 35 45
