ply
format ascii 1.0
element vertex 1260
property float x
property float y
property float z
property uchar red
property uchar green
property uchar blue
end_header
-0.257714 0.688215 3.8182 185 173 155
-0.328443 0.727469 3.80786 122 115 103
-0.24128 0.582428 3.75386 95 93 86
-0.283052 0.477856 3.74126 154 144 130
-0.296036 0.481169 3.7322 95 93 85
-0.435252 0.732834 3.75128 91 87 80
-0.460971 0.693231 3.71557 105 101 92
-0.389886 0.482758 3.64715 157 144 131
-0.49646 0.701496 3.70088 137 123 107
-0.501176 0.675157 3.68613 153 137 118
-0.427774 0.517435 3.62521 118 110 99
-0.532043 0.658463 3.66789 143 131 113
-0.484802 0.553986 3.58394 148 134 115
-0.651227 0.677896 3.63483 95 94 87
-0.527933 0.560455 3.5574 157 139 120
-0.576618 0.593482 3.55953 152 134 115
-0.590582 0.590474 3.5503 150 134 116
-0.555519 0.544642 3.52353 163 147 127
-0.71453 0.651628 3.59958 158 146 130
-0.585706 0.564573 3.51826 176 158 135
-0.724287 0.641911 3.59246 160 147 129
-0.744504 0.636753 3.57872 171 156 136
-0.619483 0.574019 3.49731 181 165 143
-0.601195 0.734456 3.25885 129 125 117
-0.614765 0.721196 3.25208 133 123 110
-0.649757 0.689682 3.22083 192 177 158
-0.671938 0.73324 3.22747 139 126 110
0.720562 0.781786 4.54231 113 107 97
0.708271 0.768691 4.52055 156 142 126
0.659623 0.779505 4.45871 104 102 94
-0.265932 0.282195 4.73243 180 177 178
0.621244 0.776853 4.42999 102 100 91
0.602305 0.776676 4.40752 109 106 95
0.585083 0.761227 4.39722 123 113 99
0.570732 0.771984 4.39103 203 188 167
0.563136 0.745527 4.37973 192 176 154
0.503433 0.761316 4.33148 115 103 96
0.469104 0.716957 4.27833 195 178 160
0.466643 0.707069 4.27221 151 137 122
0.435823 0.761977 4.2686 116 101 92
0.436255 0.747891 4.26624 82 74 71
0.424847 0.731538 4.26254 158 138 120
0.425804 0.714963 4.25167 112 96 86
0.41743 0.721435 4.2491 95 84 79
0.42734 0.675499 4.23019 209 194 177
0.379234 0.780971 4.20057 55 60 61
0.28773 0.785171 4.09157 87 84 79
0.27964 0.662502 4.07353 74 75 76
0.275766 0.654117 4.05162 56 63 71
0.244297 0.694218 4.05418 149 135 119
-0.249365 0.129845 4.19513 153 140 132
-0.183697 0.000388178 4.0582 94 88 86
0.0414499 0.725178 3.91981 53 54 57
-0.213364 0.0521772 4.03847 149 143 140
0.0303653 0.299587 3.8749 31 34 41
-0.142484 0.716302 3.8587 68 69 70
-0.152568 0.711323 3.84531 185 168 143
-0.168349 0.723187 3.84617 132 119 105
-0.183542 0.709734 3.83995 93 92 86
-0.13747 0.363283 3.79742 165 150 130
-0.177719 0.67068 3.82094 109 98 87
-0.155961 0.468418 3.78764 153 140 127
-0.166276 0.472082 3.78462 158 146 131
-0.246984 0.713054 3.8295 85 85 80
-0.241324 0.447849 3.75547 189 174 158
-0.327804 0.727661 3.80687 120 113 101
-0.264109 0.445974 3.73423 146 131 123
-0.282566 0.477945 3.74051 154 145 131
-0.295229 0.481286 3.73095 95 93 85
-0.335379 0.573404 3.70356 104 100 89
-0.434508 0.733087 3.75025 93 90 83
-0.462185 0.702034 3.71555 196 182 163
-0.389448 0.482795 3.64642 155 143 130
-0.409943 0.588756 3.65479 170 154 132
-0.495816 0.701699 3.69976 135 121 104
-0.471194 0.606138 3.66839 209 197 184
-0.500418 0.675411 3.6848 155 138 120
-0.531181 0.658779 3.66634 140 127 109
-0.484511 0.554044 3.58342 154 138 119
-0.512105 0.547864 3.56152 186 174 155
-0.576414 0.593515 3.55915 154 135 116
-0.669409 0.674258 3.6248 91 90 84
-0.555014 0.54477 3.52258 163 148 128
-0.590118 0.590681 3.54941 152 136 117
-0.585336 0.564718 3.51755 176 158 136
-0.714026 0.65175 3.59856 158 146 130
-0.723822 0.642121 3.5915 160 147 129
-0.61917 0.574143 3.49669 180 164 142
-0.736982 0.639736 3.58161 80 79 73
-0.601314 0.734397 3.2591 129 126 117
-0.639693 0.684858 3.22984 95 93 84
-0.649842 0.689576 3.22102 191 176 158
0.634649 0.757177 4.40927 182 166 149
0.667947 0.734639 4.39216 199 183 164
0.618092 0.779942 4.41317 109 106 95
0.625752 0.750563 4.40043 198 184 163
0.614589 0.766927 4.40081 184 166 152
0.58467 0.735989 4.37333 143 127 113
0.561441 0.761049 4.37337 96 94 88
0.462383 0.781899 4.27431 76 78 77
0.42011 0.744109 4.24653 66 64 62
0.409419 0.695269 4.19888 72 75 76
0.267466 0.681205 4.06665 121 108 95
0.275221 0.66721 4.05631 204 194 184
0.278728 0.654907 4.04833 59 66 75
0.259979 0.669001 4.05143 190 176 162
-0.251139 0.134719 4.20176 45 52 56
-0.11787 -0.0945903 4.07263 193 190 188
-0.139985 -0.0584118 4.0851 144 134 130
-0.185513 -0.00953492 4.07034 195 195 193
-0.185684 0.000469452 4.06085 82 77 77
-0.220979 0.0535849 4.08276 166 160 157
-0.18825 -0.0175201 4.05395 128 115 109
-0.190607 -0.014732 4.03354 191 191 189
-0.190843 -0.0215121 4.02299 74 72 73
-0.215998 0.0521101 4.04206 148 142 140
-0.189411 -0.0162539 4.00179 132 121 118
-0.150267 -0.11694 3.96206 152 145 146
0.00997927 0.517044 3.78915 157 166 168
-0.168385 -0.00873532 3.89724 183 184 183
-0.172988 0.769065 3.87611 186 170 150
-0.156181 0.468226 3.78796 158 145 132
-0.219815 0.685512 3.83374 89 89 85
-0.233397 0.688472 3.83283 87 86 80
-0.211702 0.625658 3.81256 191 176 157
-0.184537 0.42185 3.77829 183 165 141
-0.247187 0.712958 3.82981 84 85 80
-0.244293 0.683438 3.82623 105 103 92
-0.257777 0.688159 3.81829 185 173 155
-0.226925 0.448949 3.76524 173 157 138
-0.328826 0.72735 3.80845 123 116 103
-0.283143 0.477792 3.7414 156 147 133
-0.299966 0.467408 3.72543 192 176 155
-0.28092 0.448729 3.65321 214 206 201
-0.365501 0.587742 3.68233 122 116 103
-0.461931 0.692872 3.71721 107 104 95
-0.390191 0.482612 3.64766 158 145 131
-0.476264 0.604698 3.67718 215 206 196
-0.501656 0.675035 3.68689 152 135 117
-0.536183 0.730663 3.69834 95 92 85
-0.532986 0.658195 3.66957 142 130 111
-0.485686 0.553696 3.58552 145 129 111
-0.512895 0.547557 3.56297 186 173 154
-0.528691 0.56017 3.55881 157 140 121
-0.577724 0.593036 3.56164 152 134 115
-0.652523 0.677395 3.63734 95 93 87
-0.556069 0.544391 3.52458 162 146 126
-0.586371 0.564322 3.51955 176 158 136
-0.620206 0.573799 3.49874 180 165 143
-0.7389 0.639005 3.58557 77 75 70
0.818733 0.779733 4.57005 95 91 83
0.799593 0.781157 4.56417 197 180 159
0.786698 0.773363 4.55489 151 131 113
0.730603 0.781738 4.5282 173 153 129
0.699416 0.784949 4.48164 103 98 86
0.684514 0.770254 4.44717 195 183 172
0.67224 0.735653 4.38849 201 185 167
0.638583 0.758148 4.40589 188 173 157
0.595699 0.780986 4.38954 104 97 86
0.601995 0.720621 4.36227 139 126 111
0.583354 0.73 4.36563 196 183 165
0.568395 0.762769 4.36716 97 95 88
0.557502 0.764043 4.36652 165 149 130
0.561642 0.734073 4.3633 145 126 109
-0.12573 0.246276 4.82593 222 219 214
-0.151918 0.251327 4.82631 227 226 227
-0.154692 0.244124 4.81291 222 221 220
-0.166318 0.257539 4.8093 121 135 143
-0.196224 0.274472 4.8254 207 205 204
-0.185909 0.270644 4.81791 146 134 128
-0.148115 0.232746 4.77361 219 219 220
-0.166422 0.24723 4.78562 229 230 230
0.482508 0.748575 4.29718 79 72 69
0.48564 0.710362 4.27404 157 142 125
0.456892 0.732605 4.26644 119 103 91
-0.243081 0.274586 4.77349 221 219 219
-0.271874 0.272257 4.734 148 136 130
0.393346 0.781297 4.20962 65 67 65
0.417889 0.697121 4.19039 73 76 77
-0.218861 0.204945 4.6597 88 83 86
0.419332 0.662555 4.1495 69 74 78
-0.350052 0.2969 4.74345 200 192 187
-0.273125 0.25318 4.67788 167 161 158
-0.370921 0.298316 4.73391 221 221 221
-0.250391 0.205414 4.62771 149 144 144
-0.266622 0.229368 4.62665 210 209 210
0.332478 0.7885 4.12435 69 70 67
-0.262258 0.204481 4.6 109 103 102
0.331126 0.789361 4.11018 69 69 66
-0.289838 0.206627 4.59412 175 171 171
-0.253984 0.187068 4.55858 198 195 195
-0.254179 0.183432 4.53343 57 58 61
-0.355717 0.243707 4.60546 86 85 90
-0.245668 0.16788 4.50929 72 76 80
-0.238368 0.142009 4.46746 187 185 184
0.0958133 -0.0724099 4.17956 102 99 102
-0.323253 0.210661 4.5337 168 165 166
0.116155 -0.096237 4.15359 176 169 162
-0.240261 0.137665 4.45504 63 69 72
0.076012 -0.0904225 4.17109 168 158 155
0.246424 0.665983 4.02437 63 66 70
-0.235257 0.119312 4.42935 131 125 123
0.0546286 -0.0876262 4.17604 194 192 192
-0.186176 0.0592237 4.37974 202 199 198
0.114836 -0.150132 4.10171 82 82 85
0.0666343 -0.116588 4.14279 45 56 62
-0.220563 0.0910486 4.39275 186 184 183
-0.208589 0.0721773 4.38155 205 203 202
0.0945288 -0.138518 4.11008 192 187 186
0.146478 -0.193067 4.04586 82 83 84
-0.343866 0.198322 4.48068 182 179 180
0.147807 -0.18645 4.03752 37 43 46
0.160887 -0.219102 4.02387 116 115 115
0.140101 -0.195261 4.03317 176 170 164
-0.377092 0.20635 4.48612 105 96 95
-0.245616 0.103382 4.36322 206 203 201
-0.221108 0.0696255 4.31316 149 144 141
-0.256737 0.0913173 4.29826 222 220 217
-0.205444 0.0465334 4.24902 211 207 203
-0.220721 0.0599997 4.26196 172 161 156
0.109733 0.774976 3.95517 44 46 51
0.19801 -0.393103 3.85427 207 204 201
-0.0739645 -0.168957 4.05936 147 143 141
-0.0833528 -0.150897 4.06683 210 209 208
-0.0446194 -0.214543 4.02245 214 213 213
0.0541055 0.726736 3.92248 65 64 64
-0.160731 -0.00858476 4.12425 197 195 190
0.199421 -0.477403 3.76182 216 213 212
0.136998 -0.41146 3.81778 175 167 160
-0.207019 0.0447053 4.14283 59 64 68
-0.183007 0.019596 4.11735 66 65 63
-0.240984 0.0972836 4.16953 153 142 135
0.0234791 0.722925 3.91322 62 63 64
-0.159799 -0.0493019 4.08865 167 162 160
-0.0786429 -0.182211 4.00837 175 170 165
-0.109382 -0.142586 4.02821 210 207 206
-0.174378 -0.0243556 4.09139 91 82 78
0.105744 -0.405563 3.81009 168 159 153
-0.252425 0.0917956 4.15781 173 164 159
0.0361791 0.333448 3.87249 59 59 61
0.0316622 0.32316 3.8724 55 56 57
-0.228222 0.0312893 4.12446 148 141 139
-0.0797868 -0.199482 3.95859 213 210 208
0.0337695 0.416068 3.83813 89 89 85
-0.0972503 -0.196859 3.95502 89 86 87
-0.22756 0.0682933 4.08566 53 55 60
-0.193094 -0.00656348 4.05088 198 198 196
-0.166499 -0.0737182 4.0233 134 127 128
-0.202832 0.0295799 4.0594 96 90 92
0.0303796 0.21761 3.81877 96 94 85
-0.195471 0.00388034 4.04152 48 53 59
-0.20617 0.0360548 4.04779 153 145 145
-0.105305 -0.199469 3.94356 114 105 104
0.0383962 0.226732 3.7985 40 42 44
-0.111036 -0.19022 3.94691 184 181 180
-0.116822 -0.180072 3.94858 47 51 55
-0.153779 -0.107143 3.97648 143 134 135
-0.103578 -0.203299 3.92455 170 163 162
-0.0240658 0.348718 3.84072 52 55 58
-0.0260954 0.335168 3.84247 99 103 98
0.0368777 0.212527 3.77555 58 62 67
-0.127856 -0.168737 3.93442 73 69 72
0.00918774 0.54377 3.78985 62 63 65
0.0129599 0.51735 3.78517 158 167 168
-0.0465779 0.399234 3.84406 39 43 47
-0.0675412 -0.252593 3.86356 122 123 122
0.0669428 -0.420178 3.71706 72 76 78
-0.126691 -0.179044 3.90943 77 73 76
-0.0962546 -0.223939 3.87596 38 43 48
0.0847971 -0.441456 3.68369 138 135 132
-0.042452 0.628496 3.81202 103 102 94
0.0806465 -0.43348 3.67677 170 164 160
-0.0513766 -0.279812 3.80713 137 129 123
-0.0467682 -0.289483 3.7996 177 172 169
0.161536 -0.54428 3.56996 86 91 91
-0.0504856 -0.283239 3.79042 86 87 89
-0.0713491 0.622094 3.81319 51 56 64
-0.0300233 0.261411 3.76588 157 166 167
0.152476 -0.527579 3.56845 50 55 58
-0.0957342 0.406901 3.81978 63 64 63
-0.080892 -0.25634 3.80055 89 84 86
-0.0551584 -0.282678 3.76416 126 114 109
0.154554 -0.531062 3.54223 45 51 55
-0.102969 -0.206631 3.80696 68 67 70
-0.130921 0.680386 3.83783 76 80 80
0.104276 -0.428269 3.58649 206 203 196
0.171117 -0.549861 3.51255 56 62 65
-0.0772893 -0.255476 3.77577 149 139 136
0.13294 -0.465033 3.54924 211 207 201
-0.16927 0.770306 3.87087 187 171 152
-0.0558737 -0.284654 3.7463 151 142 138
-0.111089 0.453315 3.80414 66 66 65
-0.101553 -0.207393 3.78798 154 147 144
-0.159471 0.735111 3.84968 203 190 176
-0.132167 -0.0653931 3.81859 80 84 86
-0.151207 0.737857 3.83799 204 191 177
-0.134216 0.65879 3.8159 84 81 76
0.173954 -0.564327 3.4814 193 187 180
-0.140778 0.617411 3.81504 182 166 149
-0.15149 0.681206 3.82388 213 205 198
-0.132671 0.358466 3.8001 204 194 183
-0.137487 0.61898 3.78269 190 176 160
0.178562 -0.51928 3.43046 105 107 112
-0.198737 0.718699 3.837 157 144 126
0.183965 -0.476934 3.41155 93 105 109
0.186384 -0.534104 3.40561 54 62 70
-0.19203 0.659122 3.81925 188 172 152
0.185316 -0.545464 3.40445 139 163 181
-0.195429 0.679132 3.82106 102 102 97
-0.212786 0.684208 3.83178 168 154 136
0.189966 -0.524831 3.38001 138 162 181
0.210461 -0.48491 3.3453 61 66 69
-0.246241 0.692496 3.82644 178 165 146
-0.223954 0.605759 3.76786 205 194 183
-0.240444 0.582862 3.75258 93 92 84
-0.240354 0.432088 3.74197 167 151 132
-0.28872 0.477762 3.73629 99 96 87
-0.281251 0.584677 3.7207 92 88 78
-0.301499 0.459683 3.71872 148 130 122
-0.435532 0.732778 3.75174 88 85 78
-0.446021 0.677266 3.714 168 151 136
-0.417383 0.554623 3.62907 131 124 110
-0.427703 0.51718 3.62509 112 106 95
-0.497048 0.701372 3.70189 137 123 107
-0.522806 0.659063 3.66981 143 128 110
-0.527953 0.643063 3.65962 209 197 183
-0.576365 0.714657 3.67766 100 97 89
-0.58294 0.614834 3.62235 162 147 129
-0.596671 0.612638 3.61749 160 144 128
-0.468228 0.791643 3.39501 179 162 148
-0.590589 0.590439 3.55031 153 137 118
-0.565779 0.538732 3.50187 147 131 116
-0.486013 0.79217 3.37147 164 147 132
-0.670726 0.673769 3.62738 91 90 83
-0.592496 0.558204 3.50234 217 209 199
-0.507971 0.793167 3.35436 156 136 119
-0.517607 0.792025 3.34997 83 73 64
-0.63067 0.571509 3.4869 110 107 96
-0.715557 0.651144 3.60166 159 147 131
-0.721391 0.620293 3.58899 156 139 119
-0.725366 0.641548 3.59466 160 148 129
-0.546577 0.791417 3.3221 152 131 114
-0.561134 0.786121 3.30573 78 71 64
-0.566278 0.798245 3.30191 158 138 121
-0.5658 0.758719 3.27679 135 118 103
-0.604589 0.786035 3.27794 197 186 176
-0.606391 0.775594 3.27198 144 126 109
-0.631501 0.793251 3.26419 175 156 140
-0.632695 0.784699 3.2556 211 203 197
-0.658818 0.728501 3.22783 128 114 99
-0.676056 0.754468 3.22267 184 168 147
-0.285909 0.452181 3.64552 217 208 198
-0.547792 0.546715 3.53187 155 138 120
0.619541 0.749002 4.40678 197 182 161
-0.283762 0.582594 3.72032 87 85 78
-0.534789 0.72436 3.69551 181 167 146
0.471034 0.717782 4.27531 197 180 163
0.440001 0.749222 4.26233 69 66 64
0.385637 0.81356 4.04185 157 167 170
0.295072 0.797251 4.08663 158 168 170
-0.208409 0.718198 3.8368 159 146 129
-0.222313 0.707322 3.83392 107 106 95
-0.167025 0.468326 3.78486 91 91 85
-0.284521 0.729379 3.82919 166 151 133
-0.25392 0.461069 3.75371 126 115 102
-0.351112 0.68926 3.77078 137 126 112
-0.315588 0.53623 3.6955 105 105 94
-0.295173 0.447413 3.66614 214 206 201
-0.128887 0.237762 4.82049 160 151 148
0.482316 0.709746 4.27645 157 142 125
0.42245 0.722825 4.24363 96 84 77
0.416361 0.823758 3.9988 157 168 170
0.248318 0.695453 4.0494 150 136 120
-0.152614 0.7114 3.84493 187 171 149
-0.281206 0.461942 3.73516 195 181 163
-0.510171 0.792383 3.35753 156 136 119
-0.632744 0.792835 3.26613 175 156 140
0.663997 0.734044 4.39554 199 183 165
0.611471 0.766237 4.40352 191 177 167
0.590013 0.762574 4.3929 122 111 96
0.597079 0.719558 4.36662 135 122 108
0.581662 0.735417 4.37599 143 127 112
0.571273 0.75259 4.37826 136 117 99
0.559396 0.733604 4.36532 143 124 108
0.552275 0.762912 4.37121 164 148 129
0.480673 0.748203 4.29891 77 71 68
0.479818 0.709011 4.27958 157 142 125
-0.132252 0.24551 4.83222 222 219 215
0.393751 0.213403 4.27763 119 119 109
0.418719 0.74389 4.2479 65 64 62
0.390933 0.201273 4.27392 163 148 136
0.374228 0.203411 4.27988 203 190 168
0.379874 0.19418 4.27353 157 140 129
0.357717 0.202541 4.2671 95 90 79
0.350553 0.187174 4.25353 187 172 151
0.39088 0.780891 4.21209 61 64 64
0.381833 0.117294 4.18675 182 159 138
0.409827 0.659698 4.15916 66 71 76
-0.234225 0.283332 4.79973 205 200 196
0.351497 0.12577 4.19758 169 149 130
-0.136516 0.179541 4.65142 68 68 74
0.347681 0.0720204 4.11046 222 215 206
0.325631 0.0969684 4.13121 160 140 124
0.336971 0.07842 4.11556 85 80 73
0.330903 0.79399 4.11866 157 167 169
0.341647 0.0711641 4.09316 192 176 161
0.326538 0.0752368 4.09613 191 174 158
0.296165 0.119989 4.12573 197 185 174
0.321492 0.08489 4.08236 85 82 74
0.314917 0.0840472 4.07232 187 174 161
0.267878 0.653693 4.02725 73 73 73
-0.235228 0.17128 4.5813 102 96 99
0.113626 -0.0685575 4.17389 90 88 92
0.12255 -0.0825947 4.16348 157 150 145
0.109856 -0.10036 4.15435 180 170 159
0.0491233 -0.048711 4.21091 110 99 97
0.212392 -0.216933 4.01572 106 98 98
0.0730711 -0.0895251 4.17447 179 172 170
0.132729 -0.165452 4.094 135 123 118
0.160079 -0.200074 4.0581 195 193 192
-0.248747 0.170064 4.52969 96 88 88
-0.252426 0.174853 4.51454 180 174 172
0.165269 -0.216948 4.0262 183 181 179
0.162035 -0.225964 4.0225 221 217 212
0.0799869 -0.135718 4.11783 178 170 166
0.136684 -0.17667 4.04926 171 168 166
0.148659 -0.21726 4.02568 203 199 193
0.121252 -0.169329 4.04931 164 159 153
0.331123 -0.409891 3.78717 84 90 90
-0.206353 0.0874529 4.42044 193 191 190
-0.136388 0.0198746 4.33355 202 200 199
-0.184286 0.0608924 4.38521 137 129 127
-0.252855 0.132431 4.43304 188 185 186
-0.00181027 -0.162254 4.12373 210 208 206
0.304331 -0.480037 3.74933 92 97 99
0.293211 -0.47863 3.75409 195 190 187
0.210865 -0.405776 3.84482 83 84 84
0.197556 -0.393438 3.85482 211 208 205
0.00803544 -0.195912 4.07452 193 190 190
-0.267183 0.134664 4.40674 108 101 100
-0.449263 0.273279 4.60902 167 157 152
0.190258 -0.476554 3.7629 88 87 87
-0.222993 0.0605148 4.26483 167 154 148
-0.303001 0.135699 4.35971 223 221 218
-0.0754767 -0.159486 4.06752 209 206 204
-0.287666 0.113659 4.3214 192 184 178
-0.473467 0.255348 4.55311 220 219 218
-0.440267 0.22787 4.5005 224 222 219
0.0169926 0.70463 3.9041 56 57 57
-0.40877 0.202584 4.44713 224 222 221
0.0792214 -0.402427 3.79391 159 151 146
-0.128709 -0.139595 4.01302 203 198 195
0.123299 -0.493584 3.67851 169 164 160
-0.188941 0.0102169 4.08366 54 57 59
0.0340183 0.574198 3.77488 99 97 88
-0.254215 0.126748 4.14742 85 82 83
0.00975727 0.544555 3.78908 51 52 56
-0.162022 -0.0878388 4.00513 130 123 124
-0.0966173 -0.223943 3.87645 36 41 46
-0.136162 0.658218 3.81865 89 85 79
-0.124575 0.458208 3.79975 67 66 66
-0.144418 0.626713 3.82057 97 97 91
-0.161053 0.699954 3.84031 152 139 120
-0.172522 0.656346 3.82095 102 100 92
-0.177613 0.679458 3.81645 119 110 98
-0.198203 0.67787 3.82509 99 98 93
-0.225844 0.62316 3.83326 191 176 156
-0.244731 0.68325 3.82688 105 103 93
-0.313314 0.717305 3.81579 204 194 182
-0.31884 0.710505 3.80703 212 204 195
-0.309363 0.62458 3.75396 160 145 126
-0.388461 0.769192 3.79389 166 154 138
-0.404098 0.485173 3.62852 203 191 175
-0.529931 0.642753 3.66317 212 202 191
-0.589385 0.626836 3.62667 206 194 183
-0.511509 0.791721 3.36121 157 138 120
-0.591978 0.558464 3.50134 219 211 203
-0.643396 0.607683 3.59921 173 158 143
-0.536384 0.782831 3.32752 177 156 137
-0.548826 0.789241 3.3191 146 126 108
-0.561123 0.786105 3.3057 77 70 64
-0.605539 0.785607 3.27992 192 178 166
-0.607278 0.775361 3.27383 145 126 108
-0.633471 0.792362 3.26837 172 154 139
-0.659328 0.728426 3.22894 129 115 100
0.276647 0.151114 4.02494 72 73 70
-0.38173 0.643597 3.73522 154 141 124
-0.545004 0.595132 3.57699 209 195 179
-0.510922 0.516509 3.57113 219 211 203
0.354639 0.213401 4.25097 85 85 82
0.330585 0.0868195 4.11661 211 202 194
0.0204273 0.518664 3.77517 158 167 168
-0.171725 0.731283 3.86701 209 200 190
-0.163344 0.699191 3.84356 152 139 120
-0.146647 0.598143 3.79057 83 83 80
-0.272469 0.726939 3.83775 194 179 163
-0.532313 0.641955 3.66745 212 202 191
-0.564706 0.794033 3.31257 157 137 120
0.736687 0.743553 4.45586 186 168 149
0.696979 0.73133 4.41482 180 165 146
0.638151 0.745829 4.41468 153 137 120
0.578155 0.738668 4.37907 186 170 152
0.575223 0.727872 4.37342 196 183 165
0.478545 0.74753 4.30155 78 71 69
0.480176 0.709216 4.27913 157 142 125
0.390952 0.213626 4.28126 120 121 109
0.379489 0.194217 4.27403 162 144 132
0.393435 0.131298 4.20216 172 152 131
0.349592 0.187237 4.25481 187 173 153
0.344636 0.169492 4.24155 210 199 185
0.37976 0.117314 4.18953 178 155 135
0.337221 0.185893 4.24401 146 134 120
0.339946 0.189588 4.23404 88 87 81
-0.132311 0.245643 4.8323 222 219 215
-0.125567 0.238353 4.81595 169 162 160
0.314027 0.137242 4.19024 201 190 179
0.320569 0.103812 4.15387 213 204 196
0.343879 0.0722219 4.11577 223 217 209
0.338266 0.0708185 4.09792 195 179 165
-0.141594 0.233198 4.77249 165 152 147
0.325612 0.0755198 4.09744 188 171 154
0.294957 0.119831 4.12745 194 179 166
0.313531 0.0928785 4.1005 67 70 69
0.319076 0.0846462 4.0858 86 82 74
0.294146 0.125707 4.10826 186 171 153
0.312306 0.0838547 4.07606 189 174 159
0.276947 0.148691 4.09223 102 96 85
0.285267 0.146451 4.03714 161 153 148
-0.228865 0.274057 4.77944 210 205 204
0.265349 0.652996 4.031 73 73 74
-0.238743 0.275001 4.76737 221 220 221
0.229705 -0.210236 4.01892 49 57 63
-0.262665 0.285187 4.76353 205 203 202
0.174155 -0.164362 4.09218 140 128 125
-0.209994 0.208846 4.67064 91 86 88
0.115671 -0.0806413 4.16647 97 91 93
0.102465 -0.0704949 4.18049 145 138 138
-0.213455 0.205201 4.6593 190 189 189
0.10948 -0.10024 4.15493 171 163 155
0.0828058 -0.058989 4.19404 132 123 120
0.347611 -0.372484 3.78205 68 72 73
0.124232 -0.134977 4.12646 151 137 129
0.0601562 -0.0123619 4.22315 171 160 147
-0.0800439 0.0706303 4.43478 181 177 176
0.0651551 -0.0397399 4.21018 98 93 95
0.33388 -0.38784 3.79414 97 103 105
0.13102 -0.13839 4.10368 198 193 191
0.0561824 -0.0228881 4.21889 154 146 136
0.32653 -0.393124 3.79939 172 164 158
0.130741 -0.165135 4.09708 123 111 108
0.335964 -0.422233 3.77663 193 188 183
0.0538813 -0.0399615 4.2146 172 163 156
0.180946 -0.22831 4.01257 89 97 101
0.0979837 -0.126532 4.13988 125 114 111
0.156769 -0.201332 4.04714 191 186 185
0.0455428 -0.0270047 4.21905 149 143 135
0.0439991 -0.043097 4.21399 174 167 160
0.113175 -0.15021 4.10365 72 71 73
0.161755 -0.226396 4.02293 218 214 208
0.150621 -0.213764 4.03062 103 109 111
0.044981 -0.0643138 4.19404 191 187 185
0.0329054 -0.0493738 4.21211 119 107 103
-0.108359 0.0630682 4.42499 200 196 192
-0.119407 0.0670772 4.43273 204 201 200
0.273359 -0.428641 3.80913 211 207 205
0.0632423 -0.10289 4.14156 74 76 80
0.121285 -0.169433 4.04925 167 162 157
0.0454744 -0.0847024 4.16841 69 68 70
0.125884 -0.201061 4.03672 194 189 183
0.121308 -0.187463 4.04298 182 176 170
0.0737048 -0.135382 4.11003 206 204 202
-0.0670856 0.00358647 4.32839 185 180 176
0.153947 -0.293854 3.9678 160 152 146
-0.257649 0.221083 4.61584 116 106 105
-0.26847 0.229659 4.62783 211 211 212
0.111265 -0.25028 4.00414 157 149 145
-0.252755 0.187338 4.55581 169 163 161
0.310364 -0.585153 3.62743 198 191 186
-0.117787 -0.00223182 4.3016 166 160 158
-0.13769 0.023221 4.32204 137 125 122
0.192067 -0.473966 3.77291 215 212 211
-0.202995 0.0791403 4.40366 179 176 176
-0.368377 0.277236 4.65327 207 204 204
-0.226785 0.100217 4.40745 193 192 192
-0.215919 0.0813519 4.37922 132 124 124
0.0517426 0.726134 3.92572 64 63 63
-0.235724 0.109241 4.41045 106 101 101
-0.374992 0.265332 4.62615 192 183 179
-0.332271 0.221856 4.54994 198 192 190
-0.236472 0.0900723 4.33092 135 127 125
-0.246328 0.0990358 4.33924 177 173 174
-0.263247 0.122575 4.36424 163 158 158
-0.209215 0.050173 4.25038 154 140 132
-0.234061 0.0801453 4.29353 141 134 132
0.025741 0.570894 3.78967 103 100 92
0.00776708 0.576681 3.7978 101 98 89
0.00522231 0.543678 3.79725 49 50 54
0.167745 -0.558999 3.49183 178 172 164
-0.00509491 0.576062 3.80198 37 39 43
-0.0836315 -0.21638 3.93861 196 190 186
-0.143972 -0.100535 4.04021 184 175 167
-0.352929 0.16938 4.40584 184 175 170
-0.103872 -0.203299 3.92518 159 151 149
-0.195349 0.0107714 4.08696 199 196 195
-0.371172 0.174795 4.39861 224 222 219
-0.396541 0.195701 4.43571 224 222 220
-0.468464 0.251688 4.53687 87 84 77
-0.148227 0.776284 3.88722 93 93 87
-0.136305 0.658124 3.81893 88 84 78
-0.144959 0.626705 3.82162 98 98 92
-0.173005 0.730718 3.87064 214 206 198
-0.164685 0.698608 3.84737 152 139 119
-0.201039 0.782976 3.87538 82 81 75
-0.201197 0.717876 3.84118 158 144 126
-0.198465 0.677574 3.82561 97 96 90
-0.222731 0.698996 3.83666 162 147 126
-0.21464 0.640228 3.81002 212 204 195
-0.246604 0.692255 3.82815 180 167 148
-0.274026 0.725918 3.84259 195 182 167
-0.241945 0.420068 3.75235 205 198 193
-0.271238 0.594299 3.75679 186 176 166
-0.286427 0.583345 3.7308 95 91 82
-0.311516 0.623951 3.75864 163 148 130
-0.388751 0.769 3.79475 166 153 138
-0.362666 0.603639 3.70022 217 209 200
-0.407056 0.484742 3.63559 202 189 170
-0.460416 0.742876 3.74304 131 122 108
-0.457618 0.618071 3.67809 217 209 201
-0.465265 0.639881 3.68042 199 186 168
-0.482488 0.614761 3.57263 213 204 196
-0.537174 0.730064 3.70029 94 91 83
-0.533495 0.641343 3.67234 214 204 193
-0.548864 0.6402 3.64779 211 201 189
-0.573152 0.747834 3.69439 157 166 167
-0.590625 0.626361 3.63003 212 203 195
-0.594121 0.557717 3.50736 216 207 197
-0.595405 0.536966 3.48751 221 213 204
-0.608174 0.784142 3.28783 188 171 155
-0.640109 0.797903 3.27482 97 95 89
0.676426 0.731052 4.37229 100 100 94
-0.414844 0.596444 3.65673 203 188 168
-0.413737 0.597307 3.64874 201 187 172
-0.155873 0.612045 3.80894 209 200 193
0.0272842 -0.0798352 4.19525 99 97 98
-0.342913 0.569497 3.72321 105 101 90
-0.639386 0.555282 3.52254 208 195 179
0.412439 0.727004 4.28727 158 136 117
0.362904 0.209115 4.32472 117 116 104
0.367492 0.159582 4.28014 174 163 142
0.30094 0.189267 4.09525 41 45 47
0.303513 0.228826 4.05389 65 66 64
0.281719 0.209415 4.07412 41 42 44
0.261462 0.133082 4.10085 60 65 66
0.255439 0.205515 4.07112 68 70 69
0.241261 0.187114 4.07921 177 162 145
0.275557 -0.240308 3.98316 171 167 163
0.236237 0.218422 4.0541 54 55 53
0.261385 -0.265725 3.98235 145 144 143
0.326238 -0.344056 3.83829 63 68 70
0.2113 -0.201664 4.07342 131 123 122
0.243952 -0.253829 4.00364 155 151 146
0.166313 -0.112306 4.15357 67 67 70
0.199088 -0.201865 4.07738 124 117 119
0.306573 -0.371986 3.85052 171 165 160
0.165972 -0.1501 4.13501 78 75 77
0.244289 0.123879 3.9711 65 71 77
0.20133 -0.216776 4.05773 161 156 155
0.223692 -0.279249 3.99782 191 186 183
0.231144 0.115185 3.97657 61 71 84
0.209877 0.184555 4.01384 34 36 40
0.123248 -0.0823831 4.19529 80 80 84
0.20258 -0.251965 4.02308 104 112 117
0.219196 0.109552 3.97932 63 70 77
0.190716 -0.241512 4.03325 115 120 123
0.133229 -0.162781 4.13974 133 121 118
0.205944 0.100704 3.98494 71 78 87
0.19682 -0.302762 3.99695 153 148 145
0.0776138 -0.0256032 4.2446 86 82 84
0.24002 -0.387438 3.89405 155 148 142
0.268831 -0.489202 3.79425 209 205 203
0.262557 -0.482042 3.80633 209 205 203
0.0537153 -0.00681995 4.25843 147 139 130
0.21186 0.574191 3.90538 156 165 166
0.029043 0.0178655 4.28036 145 136 131
0.0690444 -0.118076 4.18875 103 95 93
0.0503356 -0.0796829 4.22452 194 191 190
-0.170575 0.193935 4.70771 121 113 116
-0.155454 0.176641 4.66535 191 188 188
0.0169165 0.00654054 4.2818 156 149 143
-0.154664 0.167077 4.64822 174 169 169
0.00337598 0.00222922 4.2906 93 88 89
0.0541898 -0.130591 4.17157 182 174 170
0.0889581 -0.187462 4.09052 178 173 168
0.0220481 -0.0558129 4.23788 200 198 197
0.0717362 -0.169482 4.10696 103 111 116
0.0318826 -0.138025 4.16674 204 199 197
-0.238145 0.256022 4.77619 180 174 172
-0.133314 0.110941 4.52955 194 193 193
-0.0195436 -0.0983966 4.21974 210 207 204
-0.27395 0.258246 4.7463 202 199 200
-0.278037 0.256606 4.73381 175 164 159
-0.244559 0.187413 4.64344 105 98 101
-0.30523 0.270913 4.712 81 80 75
-0.165428 0.0197537 4.34928 181 174 171
0.0195336 -0.351612 3.89133 164 156 150
-0.218408 0.0950459 4.4767 78 76 81
-0.34388 0.286203 4.75563 206 200 198
-0.233562 0.103784 4.46504 178 173 170
-0.22641 0.0786806 4.43036 106 100 99
-0.225963 0.0720556 4.40566 193 191 190
-0.263247 0.140042 4.4782 168 165 164
-0.106327 -0.194064 4.0178 198 192 188
-0.161439 -0.0790987 4.10972 191 188 187
-0.182004 -0.0203512 4.15888 50 57 59
-0.281159 0.120782 4.41165 179 176 175
-0.144172 0.598904 3.87118 57 60 65
-0.166922 0.602848 3.86247 212 205 198
-0.183391 0.417045 3.8513 61 61 60
-0.202931 0.649244 3.87885 155 139 120
-0.428573 0.209361 4.51092 219 215 209
-0.49932 0.271892 4.63267 224 224 224
-0.32346 0.746643 3.88539 115 109 97
-0.336643 0.52622 3.7679 97 95 87
-0.45284 0.615132 3.74094 210 199 187
-0.517071 0.513877 3.59682 212 199 185
-0.585651 0.594806 3.75719 218 210 203
-0.566453 0.566691 3.65834 210 198 184
-0.577677 0.591696 3.70589 213 203 192
0.273043 -0.389072 3.30057 80 80 86
0.311833 -0.449423 3.33446 142 166 183
0.260826 -0.36471 3.29648 146 169 185
0.260107 -0.387599 3.31552 64 68 72
0.283735 -0.404335 3.34271 122 128 125
0.291378 -0.427738 3.35097 60 60 62
0.326489 -0.467803 3.37863 95 104 109
0.30874 -0.435454 3.37213 108 115 113
0.291036 -0.415767 3.36793 132 137 129
0.327885 -0.457683 3.39836 59 63 68
0.364248 -0.511319 3.42728 76 76 80
0.369758 -0.50833 3.43549 124 118 117
0.371561 -0.490834 3.44656 131 135 137
0.370448 -0.52214 3.44949 115 110 109
0.355581 -0.533572 3.44041 185 179 172
0.375077 -0.516653 3.46233 133 129 130
0.36693 -0.484924 3.46089 86 97 100
0.314739 -0.412381 3.42378 134 143 141
0.363973 -0.465668 3.46065 84 96 101
0.30219 -0.395687 3.42056 86 84 73
0.37665 -0.50551 3.47469 80 89 95
0.291188 -0.39698 3.41464 81 83 80
0.379115 -0.531188 3.48744 126 132 135
0.38218 -0.514529 3.49881 72 80 86
0.351236 -0.419528 3.48235 130 142 146
0.336339 -0.473725 3.4746 46 52 57
0.38098 -0.520092 3.51286 90 100 105
0.380406 -0.502844 3.52536 96 101 104
0.38458 -0.521647 3.53676 156 153 151
0.381262 -0.510073 3.53675 78 84 87
0.345155 -0.587847 3.5203 202 197 195
0.365788 -0.435014 3.54038 74 79 81
0.380273 -0.543251 3.55121 181 178 173
0.365872 -0.435364 3.55205 82 88 90
0.374862 -0.402836 3.56217 133 147 153
0.373855 -0.548853 3.56336 143 138 135
0.366857 -0.569334 3.55901 141 135 131
0.367249 -0.438119 3.56481 58 65 72
0.383032 -0.531061 3.57617 185 178 173
0.359274 -0.577371 3.56928 208 204 201
0.379466 -0.457023 3.58413 90 99 105
0.385144 -0.495959 3.589 55 62 67
0.38613 -0.52982 3.59091 126 125 122
0.380904 -0.468689 3.5876 46 52 57
0.380244 -0.534679 3.58713 189 183 177
0.388726 -0.515206 3.59929 142 139 135
0.380455 -0.447923 3.59502 55 60 64
0.387558 -0.496478 3.60067 133 138 142
0.360079 -0.571043 3.5842 194 190 187
0.351577 -0.577148 3.57946 164 159 154
0.385765 -0.472371 3.60312 106 116 123
0.367166 -0.550329 3.59082 121 116 114
0.365175 -0.561212 3.59132 198 196 194
0.382228 -0.537436 3.60336 204 198 193
0.352167 -0.573057 3.589 187 183 179
0.384665 -0.53231 3.62508 206 201 197
0.381774 -0.410609 3.63027 83 90 92
0.387143 -0.460253 3.64804 85 91 94
0.429859 -0.262151 3.6781 60 61 65
0.383201 -0.522596 3.64708 94 101 104
0.385247 -0.48927 3.65146 92 99 101
0.42725 -0.284901 3.68077 185 179 173
0.375605 -0.532548 3.65455 208 203 200
0.387291 -0.469676 3.66412 135 136 134
0.382678 -0.500876 3.66176 115 116 116
0.385243 -0.484999 3.66361 106 109 110
0.41489 -0.297255 3.68485 190 184 180
0.436602 -0.268176 3.7011 55 59 63
0.427221 -0.292516 3.70148 193 188 183
0.385786 -0.462956 3.67547 112 115 115
0.361303 -0.537877 3.66182 160 154 148
0.366061 -0.524534 3.66621 172 166 161
0.380612 -0.488398 3.67611 175 170 165
0.38516 -0.415362 3.68045 99 107 112
0.429321 -0.286475 3.71006 111 104 102
0.381991 -0.474611 3.68286 98 108 112
0.401353 -0.190168 3.70232 118 127 129
0.421087 -0.298609 3.71596 160 152 146
0.389944 -0.382605 3.6987 115 118 118
0.381565 -0.453279 3.69395 193 190 187
0.373939 -0.488348 3.68897 94 103 107
0.431876 -0.28049 3.72837 171 163 158
0.368837 -0.500573 3.69068 204 201 199
0.381741 -0.428489 3.69955 64 70 74
0.409242 -0.184641 3.72794 45 49 55
0.392782 -0.358047 3.71724 174 172 169
0.41774 -0.299669 3.73523 189 184 181
0.433399 -0.264264 3.74568 61 66 69
0.396092 -0.338355 3.72539 119 129 132
0.378761 -0.427673 3.71508 105 111 114
0.387018 -0.3919 3.72173 161 158 155
0.437857 -0.289531 3.75785 183 177 174
0.40889 -0.306557 3.73998 206 202 201
0.392183 -0.361979 3.73009 106 114 117
0.366217 -0.478579 3.7134 203 200 197
0.43144 -0.260785 3.75669 135 131 128
0.400276 -0.343366 3.73705 122 134 141
0.367721 -0.464163 3.71627 184 180 176
0.389276 -0.381397 3.731 210 207 205
0.374349 -0.432113 3.72602 141 140 139
0.391652 -0.364206 3.74115 103 111 112
0.426084 -0.272559 3.7639 163 158 153
0.387058 -0.376298 3.74512 203 200 197
0.363646 -0.458558 3.73095 127 127 127
0.390665 -0.147178 3.74894 96 102 101
0.387658 -0.352242 3.75246 200 196 192
0.392028 -0.333727 3.7559 54 60 62
0.372516 -0.426704 3.74424 206 203 200
0.395365 -0.320887 3.75927 196 191 188
0.381883 -0.334315 3.75481 66 71 75
0.363767 -0.44315 3.7434 207 204 202
0.373311 -0.380071 3.75111 89 97 100
0.416889 -0.286589 3.78003 184 179 176
0.38035 -0.347489 3.7574 89 97 98
0.383584 -0.365602 3.76336 93 99 103
0.376939 -0.389127 3.76026 155 152 149
0.384009 -0.327895 3.7652 193 190 189
0.37409 -0.423055 3.76278 215 213 211
0.363108 -0.430336 3.75718 125 121 118
0.377632 -0.354666 3.76998 186 180 175
0.406283 -0.283105 3.79121 148 141 137
0.364074 -0.110729 3.76579 77 87 90
0.346844 -0.455078 3.75729 216 213 211
0.406577 -0.296177 3.79504 180 174 171
0.365539 -0.415138 3.7705 113 122 126
0.408962 -0.266512 3.80177 135 131 127
0.348881 -0.447331 3.76439 203 199 196
0.36663 -0.39647 3.7766 114 114 111
0.389021 -0.312998 3.79172 209 206 205
0.359358 -0.423028 3.7755 187 181 176
0.382393 -0.322812 3.79081 206 202 200
0.389648 -0.301998 3.79937 147 140 137
0.355907 -0.412395 3.78195 106 111 114
0.363565 -0.378287 3.79198 100 104 106
0.31512 -0.48121 3.76232 199 195 192
0.404071 -0.264983 3.82021 82 81 82
0.347462 -0.392998 3.78727 138 137 136
0.378574 -0.118302 3.80695 75 81 84
0.353893 -0.402423 3.79268 99 106 107
0.352761 -0.413726 3.79255 205 201 197
0.361265 -0.36893 3.80055 180 174 170
0.356775 -0.380037 3.79876 89 97 100
0.302518 -0.476066 3.77095 196 190 187
0.222613 0.00789742 3.7243 91 94 87
0.345558 -0.408471 3.80374 200 195 191
0.346048 -0.39327 3.80489 102 110 113
0.368804 -0.0960708 3.81962 121 132 135
0.343825 -0.080397 3.80736 83 93 95
0.356384 -0.354461 3.81525 81 87 89
0.398868 -0.252682 3.8415 58 60 64
0.213356 0.0133959 3.72987 94 99 94
0.345694 -0.343785 3.81144 191 188 186
0.345508 -0.304702 3.81335 179 175 173
0.290472 -0.475509 3.77974 97 99 102
0.393128 -0.262465 3.84391 157 149 145
0.330529 -0.377512 3.80868 174 169 164
0.338437 -0.391909 3.81374 184 177 172
0.202061 0.0246656 3.73866 85 102 115
0.339018 -0.348746 3.82159 91 97 98
0.325829 -0.388672 3.82223 102 109 112
0.35537 -0.0942994 3.84347 76 78 77
0.33296 -0.352806 3.83023 166 161 156
0.38089 -0.254028 3.86059 109 107 108
0.358131 -0.103928 3.84714 127 135 130
0.324423 -0.376996 3.83189 172 167 161
0.32683 -0.350561 3.83843 109 114 116
0.372704 -0.263342 3.86753 147 144 143
0.190413 0.0300097 3.76208 98 112 122
0.351211 -0.0950993 3.85986 121 133 136
0.318861 -0.342161 3.84403 118 117 117
0.36847 -0.251392 3.87691 63 68 72
0.180443 0.0342119 3.77011 90 101 104
0.341774 -0.0750747 3.87102 115 120 115
0.324202 -0.325997 3.8617 201 197 196
0.3609 -0.251991 3.88986 66 65 68
0.342503 -0.0889667 3.88011 103 113 119
0.356939 -0.263955 3.88996 160 154 150
0.346968 -0.27107 3.89325 105 107 109
0.141114 0.243074 3.77392 45 50 58
0.134722 0.237142 3.77087 157 165 165
0.335458 -0.148911 3.88885 51 57 62
0.335283 -0.0893323 3.89363 122 136 141
0.331668 -0.0619272 3.89206 50 56 61
0.343402 -0.259717 3.90491 113 111 110
0.282294 -0.326828 3.88539 209 206 203
0.324919 -0.0810641 3.91075 126 139 141
0.335781 -0.241551 3.92182 148 145 141
0.320688 0.195518 3.92556 65 69 72
0.312569 0.170642 3.92471 49 52 53
0.315027 -0.267229 3.93382 119 118 115
0.276034 -0.00856422 3.91385 120 131 131
0.296962 -0.287908 3.93649 191 184 181
0.391466 0.169484 3.99927 85 84 77
0.305088 -0.24372 3.9507 166 162 159
0.3948 0.178035 4.00495 66 68 66
0.298079 -0.251734 3.95794 186 182 177
0.25206 0.107522 3.93325 158 167 168
0.295061 -0.237335 3.96199 103 98 97
0.268198 -0.304857 3.94735 87 96 101
0.290998 -0.258171 3.96171 185 182 179
0.38047 0.216826 4.01207 82 78 70
0.29782 -0.225268 3.96831 79 80 83
0.302969 -0.204785 3.97308 46 50 56
0.279043 -0.268723 3.96153 186 180 176
0.422259 0.157289 4.04472 125 126 115
0.260306 -0.295445 3.95672 104 105 106
0.374269 0.217858 4.02061 60 62 62
0.138248 0.346883 3.89159 33 40 49
0.435824 0.161492 4.05667 180 169 149
0.234127 0.100915 3.94784 39 46 58
0.293125 -0.196086 3.98558 70 71 75
0.116372 0.364209 3.89334 47 53 59
0.447777 0.154323 4.07494 176 165 146
0.263555 -0.0191874 3.97763 47 53 58
0.288431 -0.206747 3.9971 122 113 112
0.252166 -0.25215 3.97758 191 184 178
0.26561 -0.0451539 3.98579 47 52 58
0.221577 0.0925966 3.96684 92 97 96
0.288268 -0.180388 4.00288 58 60 64
0.285726 -0.190778 4.00982 57 61 64
0.237252 -0.262902 3.98527 113 117 120
0.25969 -0.0416749 4.00147 132 148 155
0.455409 0.132082 4.10756 183 168 146
0.25763 -0.0273926 4.0016 61 63 64
0.279684 -0.165094 4.01662 108 101 103
0.234947 -0.252497 3.9931 84 92 95
0.273066 -0.183307 4.01999 69 68 70
0.256214 -0.0499776 4.01205 127 140 145
0.246609 -0.00438986 4.00789 128 144 151
0.241031 0.00780159 4.00769 122 134 134
0.257588 -0.216331 4.01776 81 77 78
0.159787 0.0663321 3.96596 158 167 168
0.274608 -0.154903 4.02705 96 91 94
0.226198 -0.240729 4.00161 75 82 88
0.275064 -0.173339 4.02892 155 146 144
0.266062 -0.161677 4.03896 59 62 66
0.247561 -0.212595 4.03254 79 76 78
0.208729 -0.251484 4.01365 170 165 159
0.225905 -0.223042 4.02541 154 143 141
0.256035 -0.163241 4.04627 148 139 137
0.248237 -0.184957 4.04604 138 129 126
0.237153 -0.0234595 4.04311 128 141 143
0.20335 -0.223406 4.02552 157 146 144
0.196052 -0.229172 4.02539 85 91 93
0.245972 -0.165674 4.05439 57 58 62
0.240723 -0.176577 4.05719 141 132 129
0.433253 0.122677 4.16958 157 143 121
0.44026 0.169121 4.17368 110 106 92
0.242057 -0.145691 4.0722 120 114 111
0.219896 -0.0586959 4.07154 37 41 47
0.234287 -0.145968 4.0811 81 78 80
0.238229 -0.131786 4.08394 112 107 107
0.208297 0.0458844 4.07059 111 122 128
0.233007 -0.124559 4.08959 114 106 105
0.192317 -0.0361035 4.08488 38 42 47
0.223239 -0.107215 4.10072 80 82 83
0.214046 -0.12794 4.10753 71 69 72
0.18964 -0.0323715 4.10178 33 40 46
0.17941 -0.00937757 4.09726 121 133 137
0.208401 -0.108552 4.11466 117 109 108
0.420623 0.159458 4.2216 111 106 94
0.185932 -0.161827 4.10779 144 133 128
0.182468 0.00943655 4.10741 38 43 50
0.179551 0.0362572 4.11593 61 64 68
0.17512 0.0454121 4.11554 109 121 125
0.200701 -0.104322 4.12939 56 59 64
0.419759 0.177633 4.24945 140 132 113
0.413206 0.163258 4.24634 215 206 192
0.17659 -0.0986697 4.14465 50 55 59
0.18249 -0.0783765 4.15518 61 66 71
0.398914 0.179914 4.26894 218 209 195
0.164774 -0.0963976 4.15724 68 68 71
0.412439 0.208067 4.28939 112 109 100
0.154615 -0.0834111 4.16773 75 75 78
0.159469 -0.0598678 4.17574 52 57 61
0.121068 -0.103242 4.16947 170 156 146
0.133064 -0.081698 4.17977 156 149 145
0.146697 -0.0574797 4.18773 135 130 133
0.14377 -0.0499179 4.19384 134 127 128
0.137902 -0.0361225 4.20594 138 131 129
0.107184 -0.0721522 4.19618 72 69 73
0.0798212 -0.0997593 4.18737 88 83 81
0.117948 -0.00370206 4.22232 109 110 107
0.107947 -0.0314865 4.21889 130 123 122
0.0933431 -0.0435118 4.21743 125 116 115
0.106951 -0.00213234 4.22813 127 120 114
0.0657073 -0.0648929 4.21621 163 152 146
0.0834172 -0.00667027 4.23488 144 135 127
0.0739362 -0.00445399 4.23804 66 72 77
0.0506112 -0.0372083 4.23508 78 75 76
0.0406959 -0.0397974 4.23708 189 186 182
0.0687638 0.0224693 4.25046 116 109 108
0.0508449 0.0144276 4.25873 162 156 150
0.0426657 -0.00678893 4.25527 68 70 72
0.0449601 0.00334775 4.25767 148 137 130
0.0368531 0.0401298 4.27331 54 54 58
0.0300907 0.0381549 4.28431 156 145 137
0.00336509 -0.0302771 4.27612 214 212 208
0.0263375 0.116325 4.28966 95 91 94
0.0132501 0.015193 4.29841 145 146 144
0.0163435 0.00385394 4.30043 113 123 126
0.00237242 0.016851 4.32374 112 122 125
-0.00835256 0.0408023 4.32512 32 37 43
-0.0144312 0.0391946 4.35642 191 190 188
-0.0646759 0.0535407 4.35197 90 100 102
-0.0179959 0.0440691 4.37064 188 188 184
-0.102574 0.0779237 4.35314 102 112 113
-0.0315765 0.054288 4.39942 120 130 130
-0.0346707 0.0622411 4.40434 181 179 174
-0.0427924 0.0667431 4.41793 177 177 173
-0.136832 0.106467 4.39809 35 42 53
-0.0619247 0.0931038 4.47549 83 87 89
-0.214253 0.132507 4.4249 34 41 50
-0.209383 0.125732 4.43235 39 45 52
-0.27249 0.170291 4.42824 91 101 105
-0.071851 0.152658 4.60528 182 176 172
-0.0761459 0.157095 4.62627 66 73 77
-0.0699593 0.160909 4.6357 62 69 74
-0.0783889 0.171733 4.663 55 61 67
-0.078349 0.183444 4.67663 120 115 113
-0.0847749 0.192575 4.69832 138 133 131
-0.191686 0.236637 4.67994 42 47 56
0.261459 -0.387932 3.31652 64 68 72
0.256423 -0.368243 3.33301 60 66 71
0.328231 -0.457714 3.39861 59 63 68
0.344452 -0.472297 3.4804 46 52 57
0.384317 -0.514113 3.54177 164 161 157
0.382716 -0.531144 3.57595 185 178 173
0.386076 -0.529979 3.59087 126 125 122
0.386569 -0.515685 3.59781 142 139 135
0.286063 -0.600838 3.5473 206 202 200
0.383913 -0.539183 3.6228 209 205 203
0.388089 -0.513154 3.63796 159 156 152
0.385851 -0.460483 3.64717 85 91 94
0.427687 -0.262239 3.67665 60 61 65
0.385682 -0.469946 3.66305 135 136 134
0.382124 -0.500953 3.66139 115 116 116
0.434616 -0.2684 3.69978 55 59 63
0.384408 -0.463183 3.67456 112 115 115
0.427893 -0.286683 3.70912 111 104 102
0.380465 -0.474869 3.68186 98 108 112
0.38038 -0.453509 3.69317 193 190 187
0.373735 -0.488363 3.68884 94 103 107
0.430109 -0.280773 3.72721 171 163 158
0.380728 -0.42865 3.69889 64 70 74
0.4298 -0.264449 3.74334 61 66 69
0.396816 -0.338322 3.72586 119 129 132
0.376989 -0.428019 3.71393 105 111 114
0.385682 -0.392122 3.72086 161 158 155
0.391061 -0.362152 3.72936 106 114 117
0.430344 -0.260881 3.75598 135 131 128
0.428071 -0.271426 3.75467 167 161 156
0.39798 -0.343535 3.73557 122 134 141
0.366433 -0.464352 3.71543 184 180 176
0.387474 -0.381645 3.72984 210 207 205
0.389911 -0.364442 3.74003 103 111 112
0.373118 -0.438521 3.73107 175 170 167
0.425122 -0.265192 3.76698 164 157 153
0.362815 -0.458648 3.73042 127 127 127
0.386037 -0.37185 3.7458 112 119 122
0.364043 -0.443006 3.74358 207 204 202
0.383855 -0.363852 3.75661 146 149 150
0.380763 -0.335212 3.76135 93 98 100
0.37642 -0.389177 3.75993 155 152 149
0.376119 -0.354919 3.76902 186 180 175
0.4046 -0.283071 3.79015 148 141 137
0.343395 -0.448517 3.76094 203 199 196
0.365953 -0.396566 3.77617 114 114 111
0.361684 -0.415598 3.77436 201 197 194
0.380429 -0.323131 3.78958 206 202 200
0.352386 -0.421843 3.77967 103 110 113
0.381546 -0.315455 3.79825 204 200 198
0.36288 -0.372971 3.7929 197 193 190
0.402151 -0.265204 3.81901 82 81 82
0.348475 -0.417872 3.79115 201 198 196
0.355625 -0.380191 3.79805 89 97 100
0.35884 -0.364444 3.80363 182 176 171
0.345918 -0.393426 3.80481 102 110 113
0.395593 -0.253023 3.8395 58 60 64
0.358376 -0.349761 3.82099 127 126 125
0.200108 0.0245487 3.73747 85 102 115
0.379644 -0.254141 3.85984 109 107 108
0.371076 -0.26353 3.86655 147 144 143
0.36564 -0.254478 3.87781 133 128 123
0.356268 -0.263745 3.88957 160 154 150
0.347789 -0.148201 3.89607 51 57 62
0.285761 -0.326398 3.88739 209 206 203
0.310344 -0.267764 3.93116 119 118 115
0.277277 -0.268917 3.96055 186 180 176
0.444814 0.154443 4.07332 176 165 146
0.263566 -0.0453503 3.98468 47 52 58
0.280823 -0.191191 4.00717 57 61 64
0.236349 -0.26305 3.98478 113 117 120
0.258422 -0.0415247 4.00078 132 148 155
0.452414 0.132183 4.10595 183 168 146
0.255422 -0.0273482 4.00042 61 63 64
0.271329 -0.183417 4.01906 69 68 70
0.253713 -0.0500215 4.01072 127 140 145
0.238573 0.0077717 4.00638 122 134 134
0.220745 -0.244772 4.0043 103 112 117
0.262282 -0.178259 4.02993 82 78 78
0.26112 -0.168682 4.03646 141 133 131
0.247018 -0.184985 4.0454 138 129 126
0.245665 -0.165465 4.05423 57 58 62
0.237716 -0.176862 4.05563 141 132 129
0.431787 0.122763 4.16882 157 143 121
0.239976 -0.145855 4.07113 120 114 111
0.232175 -0.146066 4.08002 81 78 80
0.236182 -0.131821 4.08289 112 107 107
0.231939 -0.124544 4.08905 114 106 105
0.189716 -0.0363196 4.08358 38 42 47
0.194154 -0.040455 4.09398 23 30 38
0.18741 -0.0323412 4.10067 33 40 46
0.177264 -0.00939113 4.0962 121 133 137
0.179474 0.00943869 4.10593 38 43 50
0.173522 0.045451 4.11476 109 121 125
0.198362 -0.104406 4.12824 56 59 64
0.175942 -0.0986686 4.14433 50 55 59
0.181041 -0.0783538 4.15448 61 66 71
0.157228 -0.0600776 4.17468 52 57 61
0.0457742 -0.166012 4.13192 198 196 195
0.125347 -0.0701312 4.18782 84 81 82
0.110537 -0.0750752 4.19137 75 73 76
0.105214 -0.0315294 4.21766 130 123 122
0.113071 -0.0110855 4.22211 138 126 120
0.0712835 -0.00434499 4.23688 66 72 77
0.0408326 -0.00682541 4.25447 68 70 72
0.0432316 0.00336002 4.25692 148 137 130
0.0278657 0.0382199 4.28337 156 145 137
0.00654895 -0.0301352 4.27746 214 212 208
0.0120966 0.0152263 4.29789 141 143 141
0.0139833 0.00388687 4.29944 113 123 126
0.00142686 0.0169139 4.32331 111 122 124
-0.0166357 0.0329092 4.36085 155 156 153
-0.0203909 0.0441008 4.3697 188 188 184
-0.0319486 0.0544029 4.39928 120 130 130
-0.0638625 0.0932309 4.4748 83 87 89
-0.218179 0.224896 4.51128 74 81 84
-0.07358 0.152825 4.60472 182 176 172
-0.0791435 0.171816 4.66277 55 61 67
0.364753 -0.301824 3.82512 179 175 173
0.198697 0.0245017 3.73662 85 102 115
0.328346 -0.0619706 3.89012 50 56 61
0.243135 -0.00452874 4.00604 128 144 151
0.186758 -0.0322287 4.10035 33 40 46
0.175314 -0.00950185 4.09523 121 133 137
0.179585 0.0298517 4.09983 116 128 132
0.205869 -0.109134 4.1134 117 109 108
0.178235 0.0093657 4.10532 38 43 50
0.0400649 -0.0068578 4.25414 68 70 72
0.0245351 0.0316603 4.28003 138 126 121
0.0121517 0.003766 4.29868 113 123 126
0.000346526 0.0168172 4.3227 112 122 125
-0.0213733 0.0440245 4.36932 188 188 184
-0.0384064 0.0513737 4.40331 207 205 202
0.254992 -0.36834 3.33196 60 66 71
0.187413 -0.0368684 4.08242 38 42 47
0.236754 0.00786278 4.00541 122 134 134
0.0130585 0.00372846 4.29906 113 123 126
-0.0199448 0.0395526 4.37062 119 132 137
0.258285 -0.367939 3.33441 60 66 71
0.271016 -0.364002 3.30414 147 170 186
0.302936 -0.425613 3.35955 72 75 76
0.275867 -0.365969 3.34741 67 75 80
0.378679 -0.489779 3.45177 119 125 128
0.382673 -0.515511 3.46786 135 131 132
0.375009 -0.483807 3.46675 87 97 100
0.3725 -0.464465 3.46683 85 96 101
0.357509 -0.423155 3.47126 111 121 125
0.38865 -0.513615 3.50345 75 83 88
0.358996 -0.418562 3.4879 131 144 147
0.38545 -0.519299 3.51605 90 99 105
0.350769 -0.403923 3.48511 132 144 149
0.38267 -0.428147 3.60097 93 100 103
0.387125 -0.531923 3.62675 200 194 189
0.389482 -0.45321 3.65379 143 143 142
0.43558 -0.268139 3.70042 57 61 65
0.386415 -0.50029 3.66425 115 116 117
0.372312 -0.530691 3.66912 207 203 200
0.431255 -0.280163 3.72797 171 164 158
0.377844 -0.487788 3.69153 97 106 110
0.429514 -0.265292 3.74316 55 59 62
0.371058 -0.500412 3.69213 208 205 204
0.407919 -0.185539 3.72708 46 49 54
0.393411 -0.370089 3.7166 198 194 190
0.426096 -0.289194 3.75024 171 164 161
0.429916 -0.260897 3.7557 135 130 127
0.428626 -0.272027 3.75503 162 155 151
0.369132 -0.483792 3.70545 200 197 194
0.403586 -0.312122 3.7453 181 175 171
0.398173 -0.319927 3.74308 84 82 85
0.421672 -0.27467 3.76651 66 70 71
0.387509 -0.371724 3.74674 106 114 118
0.390111 -0.351941 3.75402 171 167 164
0.390043 -0.334095 3.75463 54 60 63
0.391475 -0.321066 3.75678 186 180 175
0.413533 -0.28682 3.7779 175 168 165
0.368472 -0.44114 3.73849 87 94 98
0.38325 -0.334411 3.76272 90 96 99
0.379141 -0.366303 3.76054 94 101 104
0.380891 -0.350723 3.76358 95 102 104
0.377272 -0.389115 3.76047 160 156 153
0.396586 -0.306862 3.78504 71 72 75
0.406123 -0.277433 3.79406 107 99 98
0.349041 -0.443728 3.74513 202 199 197
0.36877 -0.41673 3.76527 123 124 125
0.386874 -0.313114 3.79037 196 191 190
0.368383 -0.396322 3.7777 105 107 105
0.342953 -0.463356 3.75605 119 118 114
0.363271 -0.415628 3.77536 194 190 187
0.349686 -0.44704 3.7649 210 207 204
0.388229 -0.302072 3.79848 152 144 141
0.400739 -0.265271 3.81814 75 77 79
0.359568 -0.411896 3.78423 100 107 111
0.355694 -0.421375 3.78173 120 122 123
0.362716 -0.378439 3.79145 101 105 108
0.377221 -0.118298 3.80611 70 75 77
0.35267 -0.402556 3.79192 99 106 107
0.325431 -0.479682 3.76872 206 202 200
0.351283 -0.413898 3.79164 208 204 201
0.367421 -0.328775 3.8056 96 97 98
0.363262 -0.360578 3.8029 128 128 126
0.32404 -0.468707 3.77028 158 152 147
0.35471 -0.380363 3.79749 90 97 99
0.34396 -0.418619 3.78836 214 211 209
0.388811 -0.282966 3.82714 185 181 179
0.359522 -0.333405 3.80649 181 177 176
0.394392 -0.253234 3.83876 58 60 65
0.35428 -0.363844 3.8091 94 96 98
0.346047 -0.393248 3.80489 101 109 112
0.388398 -0.26294 3.84102 152 144 140
0.341332 -0.412043 3.80397 189 184 180
