ply
format ascii 1.0
element vertex 1260
property float x
property float y
property float z
property uchar red
property uchar green
property uchar blue
end_header
-0.322529 0.141797 1.98939 93 84 69
-0.319807 0.11083 1.9742 134 115 93
-0.29473 0.0482654 1.96352 142 122 98
-0.172734 -0.0897605 1.94618 69 68 58
-0.316237 0.0818204 1.99329 55 50 43
-0.317364 0.100045 1.99259 33 31 27
-0.290745 0.0346023 1.97385 100 82 64
-0.32249 0.125677 1.98677 129 117 102
-0.230095 0.159086 2.10242 61 60 58
-0.267107 0.146623 2.07388 70 67 58
-0.311404 0.122184 2.02468 151 125 95
-0.314234 0.115058 2.01705 84 66 50
-0.317537 0.132791 2.0132 121 106 85
-0.310031 0.0840366 2.01481 111 93 73
-0.314683 0.0978922 2.00516 35 32 26
-0.320236 0.140584 2.00291 33 30 24
-0.319028 0.117283 2.00128 86 73 57
-0.317612 0.104999 1.99105 101 84 64
-0.322017 0.141826 1.98892 96 86 70
-0.317531 0.093708 1.98712 120 106 91
-0.292554 0.0545355 1.97145 85 73 57
-0.190655 0.164185 2.13328 110 114 112
-0.25236 0.143374 2.0964 74 66 53
-0.277651 0.0950761 2.07238 98 86 74
-0.279591 0.106666 2.06818 105 93 75
-0.285991 0.0859962 2.05511 56 52 47
-0.297612 0.0931936 2.03931 69 57 48
-0.31289 0.131659 2.02685 29 23 16
-0.311885 0.147215 2.02132 91 79 60
-0.312115 0.107901 2.01742 129 113 93
-0.317687 0.127162 2.01115 133 115 90
-0.311199 0.0800333 2.00877 106 92 78
-0.316335 0.0864272 1.99924 84 69 54
-0.321004 0.126459 1.99262 108 92 74
-0.318182 0.100069 1.98598 81 66 51
-0.287282 0.0360082 1.9812 155 135 114
-0.293459 0.0482616 1.96628 45 35 27
-0.221294 0.142628 2.12222 80 81 73
-0.240484 0.0666662 2.10955 122 103 82
-0.27266 0.0888814 2.07793 82 64 45
-0.292643 0.104054 2.0476 89 76 62
-0.308145 0.0769699 2.0216 164 139 111
-0.311697 0.0996957 2.01793 40 35 28
-0.319005 0.113198 2.00134 57 51 39
-0.216726 0.0342321 2.12977 166 147 122
-0.231943 0.158935 2.10392 51 49 48
-0.165518 0.0779179 2.16977 151 129 97
-0.172186 0.127356 2.16363 86 81 68
-0.17711 0.0716763 2.16381 55 45 32
-0.177816 0.0939955 2.16241 92 85 71
-0.189945 0.074262 2.15588 151 140 125
-0.16815 -0.0310555 2.14522 188 175 158
-0.196048 0.0866134 2.15126 91 89 75
-0.211495 0.161849 2.14926 108 106 105
-0.200615 0.0630181 2.14591 88 73 57
-0.189938 0.00139006 2.14327 146 130 103
-0.205472 0.0860192 2.14479 111 98 78
-0.200647 0.149453 2.14015 13 13 14
-0.207927 0.033515 2.13726 112 98 77
-0.214995 0.084246 2.13704 152 139 118
-0.189057 -0.0143368 2.13066 187 172 151
-0.21516 0.0962249 2.13651 92 88 75
-0.212375 0.141253 2.13362 47 39 25
-0.215329 0.121799 2.13342 51 43 34
-0.213892 0.0591243 2.13244 100 84 64
-0.229239 0.0842189 2.12572 44 35 21
-0.212573 0.0236194 2.12143 202 185 156
-0.222468 0.142548 2.12314 82 84 77
-0.226149 0.0617165 2.12407 121 95 64
-0.231551 0.0987625 2.12234 109 99 77
-0.217585 0.0335358 2.11499 98 84 68
-0.239019 0.0861738 2.1164 141 123 94
-0.223185 0.059194 2.11071 192 168 138
-0.237146 0.126382 2.11287 88 86 74
-0.0782646 -0.0723777 2.07299 89 77 57
-0.241425 0.0716562 2.1132 126 108 82
-0.0777294 -0.179626 2.06466 68 62 48
-0.250981 0.090669 2.10451 51 44 34
-0.251729 0.0800705 2.10115 113 94 71
-0.252405 0.142747 2.09646 74 70 54
-0.258595 0.0876312 2.09523 162 142 114
-0.260947 0.121226 2.09404 121 101 79
-0.263472 0.109784 2.09056 114 99 77
-0.259062 0.0758031 2.08755 193 174 149
-0.267424 0.0916066 2.08573 61 46 31
-0.120691 -0.347668 2.04623 31 26 19
-0.25969 0.00360867 2.07544 145 130 112
-0.147287 -0.141279 2.04446 87 82 70
-0.163845 -0.313464 2.04842 91 78 63
-0.127384 -0.347021 2.03781 183 167 147
-0.267502 0.146674 2.07421 74 72 64
-0.276107 0.099796 2.0725 43 39 33
-0.173525 -0.305811 2.04388 158 144 123
-0.274484 0.0779489 2.07053 143 116 91
-0.259925 0.0604936 2.06341 87 73 53
-0.27971 0.0907478 2.06809 114 93 68
-0.2585 -0.244128 2.06157 129 112 89
-0.172518 -0.183016 2.03255 84 75 59
-0.204483 -0.0707083 2.0397 106 111 107
-0.177281 -0.315192 2.03148 165 153 135
-0.180305 -0.146495 2.02991 67 67 59
-0.14065 -0.345295 2.01723 99 81 62
-0.2871 0.112571 2.05748 84 73 59
-0.284735 0.0784133 2.05666 163 144 123
-0.189025 -0.104421 2.02849 45 47 42
-0.287742 0.0931841 2.05536 137 123 105
-0.282496 0.147219 2.05201 65 61 50
-0.183643 -0.121267 2.02228 48 48 42
-0.29291 0.104049 2.04783 90 76 63
-0.291522 0.0844609 2.04631 121 104 86
-0.180906 -0.321019 2.01331 197 186 168
-0.292645 0.0727943 2.03881 104 83 63
-0.297738 0.0932022 2.03942 65 53 43
-0.302471 0.14732 2.03655 94 83 71
-0.299722 0.0800379 2.03386 51 43 33
-0.181551 -0.154534 1.99878 105 108 103
-0.303728 0.108607 2.03262 42 35 27
-0.307481 0.129373 2.03267 114 99 83
-0.151918 -0.34958 1.98606 90 77 63
-0.304508 0.0965662 2.02988 72 62 52
-0.175974 -0.152639 1.98648 37 30 18
-0.311288 0.121883 2.02459 160 138 110
-0.308165 0.0770113 2.02162 164 140 111
-0.218154 0.0146465 1.99417 83 74 62
-0.314864 0.135639 2.02321 89 70 48
-0.221082 -0.0151409 1.99422 68 62 48
-0.312032 0.14723 2.02145 93 81 62
-0.310936 0.0901509 2.02047 65 54 43
-0.312074 0.107927 2.01738 131 116 97
-0.205624 -0.0376372 1.98329 73 68 55
-0.166761 -0.165964 1.96942 68 64 52
-0.317606 0.132785 2.01326 113 100 80
-0.317684 0.120067 2.01072 40 35 28
-0.311126 0.0800628 2.0087 107 94 79
-0.195011 -0.297187 1.97208 158 150 131
-0.31574 0.0981061 2.00612 37 34 28
-0.166702 -0.147883 1.95913 92 95 87
-0.318872 0.113232 2.00122 57 51 38
-0.316181 0.0864329 1.9991 82 67 52
-0.210485 -0.020319 1.96486 64 58 45
-0.319626 0.123786 1.99509 141 122 98
-0.322081 0.138685 1.99444 140 128 107
-0.170608 -0.089813 1.94434 70 69 60
-0.317724 0.10501 1.99115 103 86 66
-0.16681 -0.335526 1.94264 175 161 136
-0.317871 0.0936831 1.98743 120 106 91
-0.289982 0.03449 1.97316 95 78 62
-0.292287 0.0545529 1.9712 84 72 57
-0.293639 0.0482512 1.96251 149 128 104
0.520083 0.243479 1.58812 76 79 80
-0.16479 0.0670114 2.17101 162 144 115
-0.178706 -0.0168699 2.14709 207 193 171
-0.05035 -0.121053 2.07959 100 88 72
-0.236631 -0.0215077 2.06918 55 53 48
-0.179121 -0.304193 2.0435 121 107 90
-0.263184 -0.245092 2.05199 150 134 114
-0.216891 -0.0276302 2.01091 63 57 45
-0.0209628 -0.00256608 2.12156 29 22 14
-0.132729 0.0673663 2.17843 167 145 114
-0.0170187 0.0237761 2.11857 53 44 31
-0.13877 0.0763128 2.17987 44 34 20
-0.140667 0.0962907 2.18022 61 51 34
-0.0209265 0.0373364 2.11772 40 33 23
-0.038577 0.0384622 2.12062 92 88 77
-0.0623752 0.00103959 2.12984 127 113 93
-0.157146 0.0625139 2.17229 178 158 126
-0.025054 -0.0837136 2.0908 146 129 106
-0.0949036 0.0138442 2.12636 26 17 9
-0.0347755 -0.103643 2.08753 108 92 73
-0.179443 0.0938991 2.16362 98 91 74
-0.0453932 -0.080278 2.08784 97 84 64
-0.0179444 -0.206462 2.07335 179 167 143
-0.0261791 -0.294155 2.07696 93 83 63
-0.0370603 -0.129489 2.0817 127 115 97
-0.047098 -0.0921709 2.08695 153 139 115
-0.0475685 -0.106709 2.08501 108 94 72
-0.0234538 -0.18423 2.07088 40 35 24
-0.0260525 -0.313636 2.07251 137 109 76
-0.0363188 -0.287169 2.07727 20 16 11
-0.0308246 -0.172174 2.07359 104 98 77
-0.0408862 -0.192493 2.07755 169 155 129
-0.0408003 -0.177398 2.07735 81 76 61
-0.0565973 -0.0860378 2.08526 161 147 125
-0.0565489 -0.0992621 2.08289 133 121 99
-0.0292831 -0.329579 2.06866 205 187 166
-0.0644679 -0.0691237 2.08581 149 133 112
-0.0521385 -0.17437 2.07638 31 25 15
-0.0525682 -0.149801 2.07332 106 106 92
-0.256825 0.156934 2.18402 106 105 104
-0.0479799 -0.321796 2.06884 96 74 56
-0.07545 -0.0848216 2.0808 135 121 98
-0.0673801 -0.164965 2.07584 92 84 67
-0.103806 -0.0456948 2.09488 208 198 182
-0.0600774 -0.309682 2.07067 39 29 18
-0.19407 0.0155284 2.14267 165 145 114
-0.202519 0.113655 2.14568 101 94 79
-0.0539714 -0.264081 2.06185 28 21 12
-0.0837947 -0.0721837 2.07716 86 75 56
-0.0760184 -0.277736 2.07321 46 39 28
-0.112734 -0.0509848 2.08867 202 191 172
-0.0849716 -0.0989432 2.07288 118 108 90
-0.0769265 -0.202277 2.06224 85 80 66
-0.0582165 -0.327952 2.05109 153 122 89
-0.093558 -0.0857326 2.06913 58 52 39
-0.0953651 -0.24383 2.06986 43 37 28
-0.0984895 -0.271454 2.06696 91 86 68
-0.102489 -0.230225 2.06728 28 23 16
-0.137149 -0.0495918 2.08386 202 194 179
-0.109036 -0.266837 2.06625 42 38 30
-0.107373 -0.15843 2.06391 56 49 40
-0.0988133 -0.190245 2.05644 89 85 75
-0.195928 0.00356229 2.11016 217 204 185
-0.138177 -0.0491932 2.07348 189 178 161
-0.110984 -0.327334 2.058 43 36 25
-0.11602 -0.173106 2.05848 113 110 97
-0.107486 -0.357643 2.0517 207 186 163
-0.125983 -0.315703 2.05995 132 110 83
-0.134627 -0.287327 2.06217 91 80 62
-0.165377 -0.0353139 2.07857 136 118 93
-0.205694 0.0129813 2.10003 166 142 113
-0.124169 -0.142865 2.05179 93 90 82
-0.132969 -0.162404 2.05369 109 109 99
-0.134493 -0.327269 2.05292 187 168 144
-0.17189 -0.250778 2.05615 120 104 82
-0.151714 -0.131065 2.04349 82 77 69
-0.236372 0.0177782 2.08014 21 16 8
-0.137822 -0.351625 2.01985 185 168 149
-0.252249 0.0663904 2.08471 212 194 170
-0.194381 -0.281925 2.04862 184 168 146
-0.247957 -0.223471 2.0743 61 52 42
-0.199476 -0.0883557 2.04038 59 59 49
-0.251403 -0.236543 2.07069 61 51 38
-0.18623 -0.121098 2.02442 52 51 46
-0.136184 -0.360228 1.98934 212 201 185
-0.192416 -0.174852 2.01435 121 125 113
-0.158975 -0.347507 1.98512 98 83 66
-0.184647 -0.157297 1.99905 59 58 50
-0.204689 -0.0395291 1.99287 104 99 87
-0.248444 0.0640697 2.00492 116 99 81
-0.168029 -0.325164 1.94893 203 191 172
-0.189421 -0.0617132 1.961 71 77 79
-0.215995 -0.00154243 1.9738 198 180 159
-0.168356 -0.339152 1.94183 197 183 162
-0.199 -0.0467382 1.95991 203 191 172
-0.213232 -0.0203391 1.96727 68 62 48
-0.187066 -0.0619073 1.93658 198 188 169
-0.174857 -0.0761338 1.92071 88 82 69
-0.319614 0.157269 1.98946 6 6 6
0.0147425 0.190614 1.94274 70 73 76
-0.274201 0.0340259 1.99197 127 107 85
-0.159451 0.0918369 2.1742 137 117 86
-0.168238 0.0830923 2.1719 62 52 37
-0.165034 0.123838 2.17059 94 86 67
-0.175822 0.0908813 2.16569 97 88 75
-0.177422 0.10428 2.16395 87 84 75
-0.168512 -0.0273048 2.15199 205 192 172
-0.182696 0.139865 2.15449 89 82 64
-0.18559 0.107107 2.15553 92 87 71
-0.190358 0.074219 2.15649 156 145 130
-0.195588 0.0639014 2.15184 101 84 64
-0.19647 0.0866012 2.15186 82 78 62
-0.194066 0.127568 2.14859 101 95 77
-0.182378 0.164408 2.14308 109 108 107
-0.190426 0.00132335 2.14399 148 132 105
-0.0483199 -0.106738 2.08153 152 140 118
-0.0612728 -0.0691761 2.08424 154 138 117
-0.204711 0.147973 2.13745 56 57 46
-0.208074 0.0334704 2.13766 113 100 79
-0.21505 0.0962429 2.13667 94 90 77
-0.215511 0.121788 2.1338 52 44 35
-0.0639648 -0.178051 2.07515 72 61 49
-0.0741105 -0.0817778 2.07698 64 55 41
-0.0752058 -0.182214 2.06983 76 69 56
-0.226721 0.0703472 2.12687 102 82 62
-0.2289 0.0842428 2.12576 44 35 21
-0.226619 0.117444 2.12342 45 37 25
-0.232485 0.0944361 2.12364 54 43 29
-0.0910699 -0.085796 2.06788 56 50 38
-0.0881706 -0.286436 2.06499 138 119 96
-0.236909 0.126435 2.1129 84 81 70
-0.111267 -0.0940287 2.05916 104 105 98
-0.113723 -0.164667 2.06007 138 127 107
-0.105138 -0.143019 2.05636 38 27 15
-0.109404 -0.187322 2.05066 84 77 63
-0.193307 0.000898822 2.07976 157 143 124
-0.250377 0.126903 2.10201 95 83 61
-0.249688 0.145378 2.09895 75 71 60
-0.140873 -0.0806786 2.05218 63 57 44
-0.156323 -0.314771 2.0555 164 152 131
-0.258496 0.0876591 2.09525 161 141 111
-0.260333 0.121309 2.09371 123 103 80
-0.196754 0.163822 2.06645 63 61 60
-0.148864 -0.141192 2.04625 87 82 70
-0.262985 0.109814 2.09032 114 100 79
-0.169177 -0.304796 2.05012 72 61 47
-0.164994 -0.317111 2.04743 181 170 153
-0.156205 -0.168901 2.0377 55 49 40
-0.259052 0.0202347 2.07628 144 131 109
-0.268347 0.134428 2.07942 64 63 53
-0.259076 0.00352351 2.07518 146 131 113
-0.181546 -0.146408 2.03136 71 71 64
-0.279386 0.0907729 2.06788 110 89 66
-0.273925 0.0689938 2.06096 151 122 94
-0.292186 0.104115 2.04732 92 78 65
-0.29448 0.147801 2.04332 77 74 59
-0.297807 0.0772232 2.03402 126 106 86
-0.302381 0.132606 2.03555 39 33 26
-0.302924 0.108703 2.03204 40 33 26
-0.311778 0.134908 2.02878 39 34 24
-0.310612 0.121986 2.02401 161 139 112
-0.311451 0.14731 2.021 92 79 60
-0.310105 0.0902197 2.0198 70 56 44
-0.265799 0.0408954 1.99689 124 106 82
-0.311525 0.10798 2.01695 129 114 96
-0.275806 0.0187925 1.97977 147 123 98
-0.289865 0.041123 1.98383 53 46 35
-0.292005 0.0546026 1.9712 82 71 56
-0.146719 0.0846686 2.17803 68 59 43
-0.148838 -0.0217243 2.155 189 174 149
-0.159119 -0.0130955 2.15494 53 49 39
-0.16235 -0.0262421 2.15484 162 143 115
-0.188899 0.112944 2.15121 81 74 55
-0.0536386 -0.123671 2.07662 100 88 72
-0.0635222 -0.178064 2.07472 74 65 54
-0.0832967 -0.290055 2.06659 58 53 39
-0.0820895 -0.266952 2.06571 34 29 22
-0.100054 -0.256601 2.06835 55 49 38
-0.0943782 -0.305604 2.06 196 181 160
-0.109062 -0.0822561 2.06157 60 54 43
-0.109866 -0.279493 2.0614 130 117 99
-0.104528 -0.142987 2.05574 37 26 14
-0.111097 -0.094013 2.05899 104 104 96
-0.172664 -0.0173954 2.08827 83 71 55
-0.109208 -0.187341 2.05046 84 77 63
-0.149259 -0.0502966 2.06022 96 95 84
-0.135771 -0.147824 2.04993 90 85 72
-0.14055 -0.0806889 2.05185 63 57 43
-0.239015 0.149112 2.10686 33 29 22
-0.193142 0.000906516 2.07958 158 144 126
-0.219127 0.0520191 2.09459 188 168 146
-0.132973 -0.134677 2.04455 40 31 17
-0.206362 0.0154091 2.07943 182 166 142
-0.204205 -0.00685954 2.07571 35 26 14
-0.154735 -0.143571 2.04333 43 32 18
-0.170986 -0.28831 2.05289 72 62 50
-0.167538 -0.125651 2.03696 44 33 18
-0.122042 -0.360703 2.0048 92 71 54
-0.252374 0.0147823 2.07983 49 41 28
-0.246161 -0.015332 2.06842 71 72 70
-0.268297 0.134433 2.07936 65 63 54
-0.247942 0.0433001 2.00086 139 116 85
-0.0341129 -0.0152089 2.121 89 80 65
-0.0328975 0.0114701 2.11953 75 68 56
-0.0461339 0.0121604 2.12247 24 18 12
-0.0480178 -0.0386918 2.12384 87 69 48
-0.125288 0.0979548 2.17779 124 105 75
-0.127215 0.0834971 2.17785 134 112 80
-0.126838 0.12646 2.17492 83 76 59
0.001413 -0.104871 2.07816 168 156 135
-0.14466 0.114423 2.17676 121 100 70
-0.0932478 -0.00717149 2.13921 86 80 65
-0.00907523 -0.1206 2.07857 172 161 140
-0.0156546 -0.0993106 2.08239 163 148 123
0.00178507 -0.155127 2.06863 188 178 155
-0.144585 0.141953 2.17275 94 91 77
-0.0346518 -0.0696749 2.094 201 190 169
-0.151397 0.127593 2.17299 90 84 69
-0.000791875 -0.182559 2.06157 129 123 101
-0.156648 0.141391 2.16883 79 75 61
-0.0102353 -0.224668 2.0575 113 109 89
-0.165517 0.117224 2.16886 94 86 74
-0.126334 0.0424197 2.13172 80 73 55
-0.128223 -0.0430558 2.1303 215 205 187
-0.0471925 -0.195215 2.06965 130 121 106
-0.0427013 -0.184515 2.06612 185 172 150
-0.139263 0.0376135 2.13083 87 79 61
-0.0449982 -0.211238 2.06012 69 61 47
-0.0577808 -0.187802 2.06764 64 59 48
-0.0376348 -0.265595 2.04962 25 19 10
-0.16083 0.0332024 2.13724 15 11 5
-0.0318352 -0.337489 2.04063 97 75 55
-0.0669158 -0.296325 2.06432 29 21 13
-0.0734825 -0.322241 2.06164 165 140 110
-0.0799154 -0.170596 2.06516 107 96 83
-0.178277 0.0477484 2.13732 29 19 7
-0.19299 0.127628 2.14749 96 89 70
-0.0785717 -0.192079 2.05986 95 93 83
-0.0843456 -0.150308 2.06027 83 76 61
-0.0739122 -0.328904 2.05131 211 197 178
-0.091143 -0.283567 2.06115 62 55 41
-0.0913911 -0.295141 2.06102 156 134 107
-0.113104 -0.0511661 2.07431 181 171 154
-0.0904179 -0.317156 2.05433 189 170 143
-0.100643 -0.325418 2.05408 152 127 97
-0.109011 -0.335765 2.0521 41 35 26
-0.119381 -0.270341 2.05679 124 113 90
-0.119243 -0.28598 2.0562 66 56 42
-0.201027 0.0103988 2.11684 198 183 163
-0.151083 -0.0376778 2.07721 137 117 91
-0.097239 -0.365352 2.03139 196 178 160
-0.175252 -0.00604725 2.08821 190 175 156
-0.138518 -0.260659 2.05716 56 49 42
-0.14361 -0.303396 2.05944 155 136 108
-0.154464 -0.285376 2.05607 71 68 60
-0.179869 -0.0314918 2.07357 130 111 81
-0.207047 0.0261927 2.08463 188 174 156
-0.197613 -0.22314 2.06345 51 44 35
-0.222128 0.0092456 2.07762 165 147 116
-0.21664 -0.221172 2.07035 164 149 126
-0.228826 -0.219301 2.07531 81 72 59
-0.223131 -0.0148695 2.06937 64 55 35
-0.240515 -0.22787 2.07256 188 168 140
-0.184177 -0.165309 2.02544 17 14 11
-0.230459 0.038571 2.00155 127 108 89
-0.261059 0.0225904 1.99153 129 103 78
-0.254542 0.0126127 1.98437 159 136 107
-0.273471 0.0340526 1.9911 137 118 96
-0.178482 0.0717058 2.16493 53 42 30
-0.181512 -0.00698324 2.14908 58 52 39
-0.210015 0.0873444 2.14211 42 38 31
-0.2191 0.052715 2.12735 62 56 46
-0.222908 0.142505 2.1237 80 81 75
-0.234153 0.0655514 2.11786 126 101 73
-0.238329 0.0774896 2.11645 46 38 27
-0.232545 0.151386 2.11236 12 10 8
-0.109141 -0.256473 2.06298 67 62 48
-0.10765 -0.0823236 2.06116 58 53 41
-0.245407 0.0869177 2.1099 51 42 31
-0.2516 0.0800576 2.10113 113 96 75
-0.120576 -0.347606 2.04752 32 27 20
-0.256662 0.0983058 2.09749 52 43 30
-0.140001 -0.146945 2.04823 41 31 16
-0.271161 0.100087 2.08207 42 33 22
-0.272769 0.0888183 2.07814 85 67 48
-0.267163 0.146606 2.07404 73 71 64
-0.273758 0.0778899 2.0701 143 115 89
-0.281371 0.102581 2.0649 94 83 70
-0.284125 0.0784361 2.05629 164 143 120
-0.286136 0.112621 2.05681 81 70 56
-0.286602 0.0931888 2.05462 140 125 107
-0.281757 0.147305 2.05163 68 63 50
-0.290558 0.0844893 2.04564 121 105 87
-0.296658 0.0932239 2.03876 60 49 40
-0.306897 0.0770778 2.02082 165 141 113
-0.0718319 -0.311265 2.06695 190 179 159
-0.16039 -0.150786 2.04517 98 94 81
-0.147745 0.0704053 2.17688 73 59 36
-0.0284246 -0.3149 2.06174 123 102 78
-0.0945102 -0.171601 2.0601 109 109 100
-0.134211 -0.316622 2.05629 185 167 143
-0.138669 -0.287123 2.05879 30 26 21
-0.208729 -0.289691 2.0339 199 188 170
0.0474424 -0.0912301 2.06463 188 173 147
0.0270238 -0.0839021 2.07666 47 37 24
0.00482907 -0.059991 2.09003 169 152 126
0.0119018 -0.0919263 2.07676 154 135 108
-0.0388487 -0.00175538 2.1216 70 64 53
-0.0428677 0.0290555 2.12177 28 22 15
0.00944827 -0.115304 2.07195 179 166 143
-0.0477348 -0.020424 2.12426 92 83 70
-0.00385352 -0.0878427 2.08019 137 120 97
0.00713196 -0.134465 2.06856 133 115 90
-0.0195786 -0.0709544 2.09206 153 135 109
-0.10249 0.117003 2.16894 29 22 13
-0.100838 0.0683458 2.16748 165 145 117
-0.0576279 -0.0148844 2.12632 127 116 96
-0.0581691 -0.0304544 2.12691 96 89 75
-0.111341 0.0891697 2.17511 136 116 84
-0.114074 0.128601 2.17334 74 65 44
-0.0642583 -0.0495863 2.12523 63 54 39
0.0132146 -0.216119 2.05214 71 65 48
-0.0102524 -0.133279 2.07297 126 107 83
-0.0717108 -0.0187043 2.13048 32 24 16
-0.116818 0.0641513 2.17265 90 67 39
-0.0768541 -0.0397251 2.13372 211 200 182
-0.0754858 -0.00498097 2.13113 96 91 77
-0.00830638 -0.162346 2.0652 167 155 132
-0.00639929 -0.173027 2.06194 75 67 49
-0.104331 -0.0325999 2.14917 38 31 21
-0.102587 -0.0063963 2.14322 30 23 12
-0.115863 -0.0324713 2.15479 125 110 87
-0.147079 0.100663 2.18122 57 48 36
-0.0340135 -0.168218 2.06481 29 22 12
-0.154536 0.0811318 2.17882 172 155 122
-0.162169 0.101674 2.17598 133 114 86
-0.0388084 -0.224304 2.05679 53 45 32
-0.0130386 -0.343914 2.03041 101 75 49
-0.051663 -0.274045 2.06712 36 27 17
-0.0576521 -0.116625 2.07073 93 81 64
-0.0504201 -0.322293 2.0572 208 199 184
-0.156903 -0.0186012 2.16034 156 142 119
-0.183066 0.151968 2.17027 120 103 96
-0.039127 -0.347791 2.02765 96 74 53
-0.180382 -0.0171053 2.14881 202 187 163
-0.191049 0.148121 2.15499 6 7 7
-0.201977 0.094096 2.1502 104 95 77
-0.101301 -0.315946 2.04943 51 42 29
-0.203226 0.123915 2.1477 89 90 81
-0.120624 -0.24912 2.05567 72 65 55
-0.119217 -0.307517 2.05294 86 68 45
-0.223196 0.0933796 2.13401 98 88 64
-0.16401 -0.142062 2.0403 43 32 19
-0.199021 -0.0284191 2.06891 164 142 113
-0.19895 -0.23439 2.056 75 69 57
-0.231576 0.0498195 2.07809 86 79 68
-0.232229 -0.246622 2.06739 204 188 166
-0.256199 0.02275 2.07935 90 79 63
-0.229739 -0.260034 2.03159 209 198 181
-0.241013 -0.21438 2.02531 35 30 21
-0.245443 -0.195729 2.01137 147 169 185
-0.226623 0.00915745 1.98213 133 111 84
-0.222264 -0.000265327 1.94474 192 172 149
-0.25424 0.158748 2.09019 69 66 64
-0.0299342 -0.113683 2.08246 164 151 128
-0.205389 0.103163 2.14536 80 77 65
-0.123816 -0.190029 2.04459 25 19 11
-0.14467 -0.324364 2.05373 149 132 109
-0.00309442 -0.100408 2.08432 126 108 82
-0.0548638 0.0259615 2.12866 95 87 71
-0.00753735 -0.116588 2.08225 136 121 98
-0.0211757 -0.168816 2.07147 65 58 43
-0.0189279 -0.212681 2.06914 106 101 86
-0.0493632 -0.121294 2.07995 100 88 73
-0.0456519 -0.140945 2.07599 99 88 72
-0.0486441 -0.210816 2.0637 70 63 49
-0.0895049 -0.256366 2.06508 62 54 42
-0.0879028 -0.30939 2.0594 96 78 59
-0.116749 -0.264179 2.0603 61 56 45
-0.117223 -0.287331 2.05892 129 112 89
-0.121158 -0.323572 2.05531 135 112 84
-0.135695 -0.302528 2.06218 80 65 46
-0.142562 -0.15622 2.04775 74 68 55
-0.121888 -0.362989 2.00264 186 167 147
-0.165318 -0.187332 2.03262 81 73 58
-0.219477 -0.230376 2.06457 198 182 158
-0.00521676 -0.135373 2.16139 152 172 186
0.0309394 -0.0903935 2.08435 192 178 152
0.0322282 -0.10477 2.07829 217 210 195
0.0114134 -0.0765985 2.09601 206 196 176
0.0077151 -0.0455717 2.09499 92 84 67
-0.00664932 0.0643104 2.11076 169 151 122
0.0178284 -0.103517 2.08196 150 132 103
0.00181928 -0.0786865 2.09852 68 59 43
-0.0282722 -0.0186678 2.13 38 31 22
-0.0083577 -0.059737 2.10574 172 155 130
-0.0166385 -0.0443926 2.11176 30 21 10
-0.0334057 0.01696 2.12926 83 73 58
-0.0157782 -0.0756071 2.1034 183 169 145
-0.0410434 -0.0372147 2.13031 149 130 106
-0.0271221 -0.0509581 2.11222 167 153 131
-0.0233685 -0.0590026 2.10675 209 198 179
-0.0563146 0.0693332 2.1455 147 125 95
-0.018226 -0.0872227 2.09783 140 124 102
-0.048483 -0.00185712 2.13343 71 64 53
-0.0682454 0.081183 2.15456 131 110 77
-0.0142693 -0.125895 2.08938 136 122 102
-0.0660478 0.0675053 2.14975 102 76 49
-0.0011131 -0.18452 2.07167 112 99 75
-0.0318586 -0.0706176 2.1072 163 145 118
0.00101746 -0.227684 2.06707 212 207 193
-0.0616449 0.0109881 2.13922 21 15 9
-0.00516138 -0.219848 2.07111 211 205 189
-0.0836833 0.0974898 2.16392 42 33 21
-0.0622021 -0.0181761 2.13679 65 56 46
-0.0237573 -0.132262 2.08969 129 110 86
-0.0843086 0.0728723 2.1624 39 28 14
-0.0894145 0.0889837 2.16719 23 17 11
-0.0663184 -0.0303361 2.13703 94 88 74
-0.0145559 -0.224771 2.07054 202 193 174
-0.022969 -0.301952 2.08093 179 159 131
-0.0276081 -0.195133 2.0842 76 67 51
-0.101975 0.100328 2.17384 25 19 12
-0.0733857 0.00609757 2.13749 98 93 76
-0.0207161 -0.321259 2.07474 117 90 67
-0.103793 0.0778574 2.17353 142 121 90
-0.075994 -0.02603 2.13962 86 81 66
-0.107131 0.116525 2.17475 29 22 13
-0.110595 0.0959297 2.17835 71 63 45
-0.111416 0.0849035 2.17868 178 159 124
-0.0808208 -0.0110881 2.13996 41 34 26
-0.0254122 -0.235173 2.06788 96 90 70
-0.117804 0.0749145 2.18088 144 123 91
-0.0926092 -0.0421973 2.14452 52 42 28
-0.137547 0.0615113 2.19957 101 77 48
-0.101174 -0.0436032 2.14961 133 116 95
-0.130813 0.0809975 2.18476 119 95 70
-0.0823076 0.0520726 2.12289 82 75 61
-0.131793 0.0975146 2.18487 127 106 76
-0.041225 -0.218341 2.07271 70 66 55
-0.133666 0.125862 2.18243 94 87 70
-0.108181 -0.00622836 2.15032 30 23 12
-0.0395135 -0.330426 2.06539 214 206 191
-0.135133 0.0678901 2.18213 167 146 113
-0.0282275 -0.340536 2.04971 99 75 52
-0.120569 -0.0323683 2.16079 124 109 86
-0.0574758 -0.27464 2.08219 44 36 26
-0.140977 0.0873582 2.18422 167 146 115
-0.0516804 -0.222415 2.0732 54 46 33
-0.0571945 -0.162797 2.07955 71 66 53
-0.141654 0.076045 2.18431 42 31 18
-0.142379 0.0996581 2.18486 155 138 104
-0.145654 0.0648532 2.18136 169 148 115
-0.150187 0.113998 2.18276 123 103 72
-0.151494 0.0917509 2.18225 50 43 30
-0.150131 0.141352 2.17895 94 91 77
-0.156335 0.0810717 2.18115 177 160 126
-0.156773 0.127105 2.17877 93 87 71
-0.0528062 -0.344775 2.04538 95 74 52
-0.0745219 -0.234666 2.07222 100 94 76
-0.148056 -0.0135814 2.16258 130 111 83
-0.159161 0.0576389 2.17512 198 176 140
-0.0818578 -0.149159 2.07548 76 70 56
-0.162351 0.140799 2.175 78 75 60
-0.0755758 -0.320405 2.06454 163 137 107
-0.0633069 -0.339443 2.04841 75 57 38
-0.125694 0.0136906 2.12424 19 13 6
-0.152848 -0.0294329 2.15825 163 140 108
-0.167071 0.072316 2.17554 97 80 59
-0.0732834 -0.34274 2.05431 99 77 54
-0.159366 -0.0185655 2.16357 154 140 117
-0.110421 -0.0862101 2.09571 62 57 45
-0.170607 0.147693 2.17156 10 10 9
-0.0793638 -0.331715 2.05338 122 95 70
-0.0744899 -0.363829 2.04665 156 129 102
-0.0850933 -0.351809 2.05019 124 99 73
-0.0941033 -0.333692 2.05901 51 40 28
-0.183598 0.151934 2.17098 120 104 96
-0.174101 -0.0149816 2.15667 146 130 104
-0.108148 -0.207979 2.06106 49 38 26
-0.174445 0.04889 2.14504 89 82 67
-0.13028 -0.151689 2.06015 43 35 25
-0.134538 -0.251365 2.06625 111 104 88
-0.196949 0.0151457 2.14698 167 148 121
-0.20336 0.0995047 2.15083 37 29 20
-0.209331 0.0193095 2.13913 134 116 93
-0.215436 0.0234946 2.12557 201 183 158
-0.159433 -0.328648 2.04826 201 183 165
-0.171629 -0.141374 2.05107 44 32 17
-0.204709 -0.015806 2.0854 155 136 105
-0.2045 -0.0284607 2.07675 161 139 110
-0.219566 0.023226 2.08466 175 158 131
-0.203894 -0.233617 2.06312 79 72 60
-0.235648 -0.246632 2.07244 205 191 170
-0.258641 0.0586305 2.07838 86 78 66
-0.236146 0.00602254 1.99286 195 178 156
-0.286247 0.123942 2.06316 27 21 15
-0.292545 0.153822 2.05097 9 8 7
-0.267179 0.0386692 2.00477 82 62 40
-0.251461 0.15999 2.08063 69 66 64
-0.1808 0.141169 2.16002 98 94 80
-0.204408 0.142993 2.14328 83 83 72
-0.226208 0.0826229 2.13295 132 117 91
-0.240343 -0.235573 2.07391 58 51 43
0.116498 0.176016 1.97885 157 166 166
-0.00722681 -0.133459 2.08617 123 104 79
-0.0356623 -0.00994905 2.13248 79 70 57
-0.0217359 -0.161119 2.08188 165 153 129
-0.0396839 -0.304178 2.07787 165 144 114
-0.130487 -0.0302638 2.16422 156 138 109
-0.249567 -0.212388 2.03826 38 31 21
0.223637 0.0933585 1.92337 39 30 17
0.21853 0.109979 1.92671 25 19 11
0.206835 0.104263 1.93478 57 44 26
0.200992 0.0868839 1.9386 98 78 50
0.197804 0.106682 1.94028 46 36 20
0.191967 0.0910337 1.94733 47 38 23
0.207644 0.181217 1.91221 158 166 166
0.241581 0.147513 1.82703 50 39 23
0.180506 0.0985526 1.95409 22 16 8
0.167687 0.114638 1.96212 21 14 7
0.138889 -0.0235374 1.9837 109 102 84
0.108428 -0.00347899 2.00541 26 19 12
0.119764 0.176443 1.97159 157 166 166
0.0962938 0.10213 2.0218 82 66 44
0.0948917 -0.0258151 2.02334 90 76 55
0.0827553 -0.0613632 2.04083 173 153 121
0.0743478 0.0802456 2.04212 103 93 71
0.0664589 -0.0339229 2.0534 97 85 62
0.0577028 -0.113441 2.06033 124 104 73
0.0463538 -0.109533 2.06998 191 178 151
0.0420152 0.0798056 2.06809 26 19 10
0.0353951 -0.0811305 2.084 131 110 81
0.0362116 0.0742864 2.0749 85 72 47
0.0319646 -0.0569536 2.08199 103 90 70
0.026303 -0.0214074 2.08339 97 86 61
0.0323197 -0.122123 2.07031 151 134 103
0.0148695 0.0907235 2.09425 34 26 14
0.023312 -0.142101 2.07023 157 144 118
0.00562062 0.0702639 2.10262 62 55 41
0.00294538 0.0871725 2.10221 101 83 56
0.00241519 -0.0542157 2.10322 79 70 54
0.0180494 -0.162559 2.06706 159 140 107
-0.000375299 -0.0678637 2.10259 173 153 128
0.00657502 -0.192646 2.06475 138 125 99
-0.0112368 -0.032119 2.10155 113 104 85
-0.0225626 0.0895844 2.12224 84 76 57
-0.0184862 0.147382 2.11023 79 71 52
-0.0239822 0.0736284 2.12449 94 88 70
-0.00232088 -0.197419 2.06947 136 128 102
-0.0325707 0.0635538 2.12438 109 106 93
-0.0404491 0.083356 2.13686 34 24 13
-0.0519657 0.0942775 2.14527 51 39 22
-0.0555109 0.11433 2.14342 38 28 16
-0.0653583 0.113501 2.15233 90 73 48
-0.0600248 0.16632 2.13156 158 166 166
-0.0294979 -0.270048 2.06227 108 107 90
-0.0726933 0.0856942 2.15871 140 120 87
-0.0358275 -0.261101 2.06754 106 101 81
-0.077749 0.126596 2.15968 86 77 58
-0.0736012 -0.0498983 2.13748 66 58 43
-0.0874876 0.109013 2.16861 97 79 52
-0.0469369 -0.246817 2.07046 96 90 74
-0.0881221 0.131413 2.16571 67 55 32
-0.0896621 0.0649432 2.16644 126 99 65
-0.0963368 0.151548 2.1736 108 96 93
-0.0868597 -0.0147145 2.14443 54 45 33
-0.0668059 -0.278738 2.08275 187 172 149
-0.0751965 -0.111975 2.08408 124 114 97
-0.115747 0.101371 2.18233 76 67 48
-0.104118 -0.0430813 2.15482 129 112 90
-0.119996 0.127918 2.18198 81 70 48
-0.119244 0.0627297 2.18075 179 156 118
-0.124487 0.0937707 2.18953 38 31 20
-0.113808 -0.045866 2.15915 34 25 16
-0.110555 0.0450823 2.13519 105 94 69
-0.133684 0.0810246 2.18989 119 94 64
-0.132875 0.147295 2.18496 6 6 5
-0.135945 0.12554 2.18652 96 90 74
-0.139318 0.10644 2.18929 99 86 63
-0.142571 0.149263 2.1885 129 116 110
-0.143805 0.0870691 2.18933 170 149 117
-0.143371 0.0660145 2.18703 83 62 40
-0.10629 -0.238196 2.07863 51 44 33
-0.151776 0.100204 2.18867 57 49 37
-0.103063 -0.348667 2.06381 122 98 75
-0.152905 0.11366 2.18773 121 101 70
-0.152472 0.14097 2.18323 95 92 79
-0.153811 0.0699731 2.18629 75 60 37
-0.15791 0.088169 2.18725 49 41 27
-0.150808 -0.0134436 2.16764 143 122 89
-0.145765 -0.0401743 2.14534 212 201 179
-0.155795 -0.0293311 2.16372 163 140 106
-0.165434 0.0761047 2.18374 128 112 88
-0.16494 0.140382 2.17981 79 75 61
-0.162306 -0.0185992 2.16905 156 142 119
-0.169457 0.111884 2.18123 91 79 61
-0.170113 0.0666769 2.17999 166 148 120
-0.140723 -0.301084 2.07183 79 67 48
-0.17687 -0.0150394 2.16192 145 128 102
-0.186189 0.151466 2.17591 121 104 96
-0.176786 0.0487393 2.14952 89 83 67
-0.190534 0.0623663 2.1677 129 106 78
-0.193683 0.150602 2.16755 106 92 85
-0.150613 -0.192516 2.04849 32 23 13
-0.201936 0.0964826 2.16019 85 82 70
-0.177083 -0.0342291 2.08604 173 152 122
-0.207447 0.112953 2.15415 99 93 77
-0.211791 0.0990089 2.15341 39 32 25
-0.210144 -0.015109 2.08765 79 64 45
-0.209178 -0.0268615 2.08113 191 175 148
-0.206835 -0.233102 2.06918 77 71 59
-0.216948 -0.245405 2.06911 109 96 80
-0.241858 -0.0123762 2.08389 95 85 66
-0.241096 -0.216911 2.08721 76 68 56
-0.246002 0.0238774 2.08214 45 39 27
-0.257617 0.0669655 2.11431 201 183 158
-0.245954 -0.244236 2.07872 180 161 138
0.243251 0.0669125 1.86077 158 167 166
0.203439 0.0777412 1.931 135 115 84
0.212866 -0.0412153 1.90049 189 175 148
0.182112 0.0725386 1.94664 143 123 89
0.175916 0.0872356 1.95494 43 33 18
0.206147 -0.0964228 1.88117 84 73 55
0.161757 0.0905308 1.96511 89 75 51
0.166956 -0.0461214 1.95459 82 75 57
0.156708 -0.00208918 1.95828 26 18 8
0.150618 -0.0487677 1.97019 148 132 103
0.140388 0.0796492 1.9851 44 33 18
0.143392 -0.0279527 1.97395 38 31 20
0.167632 -0.116469 1.91442 138 121 93
0.134254 -0.0560818 1.98573 134 117 91
0.126901 -0.0758457 1.98963 177 160 131
0.117055 -0.051762 2.00448 131 115 87
0.118284 0.124044 1.99818 38 27 14
0.112631 0.076549 2.01027 42 33 20
0.150397 -0.127433 1.92388 153 137 110
0.104447 -0.0514676 2.01647 73 60 39
0.100423 0.0689416 2.01867 113 95 69
0.102104 -0.0378252 2.01636 101 89 64
0.0991171 0.0916842 2.01983 29 20 10
0.0997142 -0.0690083 2.02172 101 83 57
0.0932766 -0.048858 2.02738 49 39 25
0.0932563 -0.0868314 2.02552 187 171 141
0.0898231 -0.0648326 2.03185 70 56 39
0.0858798 0.0929694 2.03035 80 68 46
0.0830812 -0.0752975 2.03602 89 75 52
0.0806502 -0.0363806 2.03842 97 85 61
0.0709025 -0.048899 2.04779 57 47 32
0.0683632 -0.0335557 2.04907 97 85 62
0.0681506 0.0907362 2.04643 93 81 58
0.0575747 -0.0674336 2.06159 117 104 80
0.0608109 0.104689 2.05041 91 80 57
0.0554011 0.091908 2.05573 98 89 65
0.05215 -0.0116471 2.0543 69 54 36
0.0444913 -0.0627973 2.07081 101 87 64
0.0390834 0.129986 2.06201 71 62 44
0.0330208 -0.0571242 2.07954 103 90 70
0.0270581 -0.0214075 2.08162 97 86 61
0.0334517 -0.122266 2.06766 151 134 103
0.019018 -0.0673598 2.09391 57 49 38
0.0201938 -0.0318228 2.08817 65 53 35
0.0180008 0.0843886 2.08976 90 78 52
0.0110219 0.0661662 2.0966 136 117 89
0.0197568 -0.103828 2.07836 152 136 110
0.0244178 -0.142314 2.06762 157 144 118
0.0129183 -0.0764288 2.09306 209 198 177
0.0114686 -0.0151276 2.09222 61 51 36
0.0111007 -0.0419507 2.09251 89 81 66
0.00876249 0.123902 2.09342 36 25 12
-0.00236477 0.103254 2.10573 108 97 73
-0.00019737 0.136672 2.09894 71 62 48
0.000176389 -0.0678552 2.10128 173 153 128
0.00901741 -0.121894 2.0805 188 178 159
-0.000496986 -0.0327056 2.09723 115 108 89
0.0131144 -0.198093 2.05542 142 130 106
0.0013355 -0.135346 2.0804 128 110 85
-0.00844559 -0.0848685 2.09742 221 214 203
-0.0131833 -0.0432916 2.10366 30 21 12
-0.0263283 -0.014699 2.13085 39 31 20
0.0184005 -0.261868 2.02151 213 207 192
-0.0325588 -0.0271555 2.13021 171 152 123
-0.0355358 0.0486907 2.13062 34 24 13
-0.0142768 -0.150884 2.08142 122 106 85
-0.0353315 0.127415 2.1263 76 65 41
-0.0163364 -0.178207 2.07541 118 112 89
-0.0222582 -0.129744 2.08765 171 156 133
-0.0370159 -0.0507976 2.1126 147 124 94
-0.052784 0.0912534 2.14612 84 70 48
-0.056819 0.0744381 2.14904 155 140 113
-0.0271509 -0.219958 2.07026 87 81 66
-0.0325812 -0.20366 2.07797 79 74 58
-0.0664215 0.0848125 2.15621 33 23 13
-0.0281862 -0.270463 2.05896 108 107 90
-0.0729443 0.0942518 2.16236 100 81 55
-0.0713015 0.123694 2.1573 81 70 50
-0.0510918 -0.0620189 2.10906 161 141 113
-0.0382095 -0.309033 2.07326 60 46 31
-0.0398847 -0.218723 2.06936 64 59 47
-0.0893105 0.083776 2.17208 132 115 86
-0.0452362 -0.247284 2.0661 96 90 74
-0.0841976 0.164818 2.14948 157 166 166
-0.0504332 -0.222797 2.06996 49 40 27
-0.0974655 0.151308 2.17653 108 96 93
-0.0464311 -0.333802 2.05101 145 113 81
-0.092232 -0.0327393 2.15009 75 63 47
-0.0474263 -0.352201 2.03824 179 158 134
-0.0993653 0.164283 2.16048 157 166 166
-0.095241 -0.0490606 2.1483 198 182 158
-0.0471522 -0.366988 2.0271 206 184 160
-0.111404 0.149574 2.1821 69 65 65
-0.0728464 -0.107836 2.08372 87 78 60
-0.0545405 -0.3621 2.03485 192 169 146
-0.0620508 -0.348313 2.04408 84 63 41
-0.0728176 -0.352743 2.04627 86 64 44
-0.111259 0.0449858 2.13708 105 94 69
-0.0728567 -0.36475 2.04149 151 123 97
-0.123414 0.0487006 2.14162 107 97 72
-0.101428 -0.349416 2.0593 122 98 75
-0.111404 -0.313624 2.06155 58 48 34
-0.129105 -0.247733 2.0667 71 64 51
-0.148955 -0.192936 2.04356 32 23 13
-0.210475 0.00626174 2.08138 85 78 66
-0.211136 -0.20548 2.0606 77 67 51
-0.215696 -0.174195 2.03085 147 169 184
-0.310429 0.149997 1.99529 46 39 29
-0.0311385 -0.0939147 2.09674 148 134 110
-0.0347739 -0.163413 2.08088 44 36 27
-0.10005 -0.154779 2.07306 86 78 61
-0.146697 -0.285512 2.0698 29 25 20
-0.0982503 -0.0253004 2.15122 34 27 18
0.0651586 0.138456 2.04047 79 69 45
0.0345981 -0.149095 2.05825 149 132 103
-0.00021743 -0.0911895 2.08937 153 134 108
-0.077686 0.161212 2.16296 68 67 65
-0.0790287 0.10737 2.16344 131 112 80
-0.0386217 -0.351438 2.03399 120 91 63
-0.0701407 -0.269021 2.07757 26 20 12
-0.0943217 -0.346604 2.05527 174 149 119
0.256347 0.108311 1.88769 30 22 11
0.257474 0.0808383 1.88495 105 87 59
0.274266 0.170694 1.83111 7 7 7
0.248914 0.0941282 1.89648 89 73 46
0.247043 0.107159 1.89688 80 69 45
0.239063 0.0834427 1.90344 46 36 22
0.236215 0.133114 1.90349 76 68 47
0.233329 0.117654 1.90756 93 80 56
0.226374 0.134513 1.91091 81 69 45
0.224152 0.0783593 1.91335 121 95 59
0.236305 -0.025221 1.87518 107 96 73
0.226536 -0.0197073 1.88602 153 138 108
0.225085 -0.0380577 1.88753 163 149 124
0.230781 -0.0962045 1.85006 184 171 147
0.202872 0.133958 1.92544 71 60 40
0.208649 -0.0291481 1.90528 136 121 95
0.221774 -0.0927343 1.86102 54 48 32
0.192292 0.113438 1.9381 83 73 50
0.21612 -0.0889187 1.8716 191 180 156
0.199762 -0.0247333 1.91878 120 103 77
0.206394 -0.10811 1.87375 145 132 105
0.194798 -0.10615 1.89136 183 171 148
0.16797 0.103279 1.95878 76 66 47
0.170648 -0.0655145 1.94647 124 108 84
0.185654 -0.11205 1.89695 194 184 162
0.200489 -0.134035 1.84921 203 193 176
0.156843 -0.0584687 1.96263 147 132 105
0.156448 0.0156071 1.95017 72 61 41
0.140316 0.145643 1.95893 76 68 51
0.155138 -0.128856 1.91991 204 196 180
0.128503 0.0741726 1.99454 77 61 35
0.181582 -0.153476 1.82573 115 100 77
0.136488 0.156064 1.96119 2 1 0
0.129272 -0.0135533 1.98432 26 20 13
0.172114 -0.154995 1.84217 131 113 87
0.120038 0.10336 1.99847 83 71 48
0.118885 0.0743302 2.00288 100 79 53
0.123982 -0.0897074 1.98801 191 180 157
0.112574 -0.0699663 2.00541 82 70 51
0.107922 0.0914076 2.01157 85 70 49
0.114138 -0.10177 1.9965 145 128 99
0.107534 0.132324 2.00386 80 69 48
0.106991 -0.0982224 2.00831 182 167 140
0.104473 -0.0732461 2.01572 87 75 54
0.104429 -0.0132722 2.00686 29 22 12
0.108136 -0.11504 1.99708 175 157 123
0.102218 -0.0317077 2.01278 27 19 10
0.0996253 -0.0909216 2.01789 97 82 59
0.0954457 0.081952 2.0205 96 80 53
0.0923601 -0.0584958 2.02854 112 97 72
0.091941 -0.00487707 2.01511 76 61 40
0.0859617 -0.101891 2.02951 134 124 99
0.080036 -0.0912343 2.03691 128 111 84
0.0780178 -0.111628 2.04137 163 144 112
0.0754289 -0.0254071 2.03986 83 69 47
0.0721446 -0.106688 2.0503 162 143 113
0.0754218 -0.128168 2.03746 109 92 63
0.0682596 -0.0921696 2.05342 43 34 20
0.0671901 -0.0138858 2.0424 66 56 40
0.0640925 -0.024555 2.04909 104 92 68
0.0631905 0.0702296 2.04803 96 88 65
0.0637014 0.122738 2.04175 41 29 15
0.0593713 -0.077344 2.05883 105 96 75
0.0549609 -0.0211645 2.05617 25 18 10
0.0956217 -0.235505 1.91228 117 104 83
0.0558467 -0.132489 2.0463 171 158 127
0.0893903 -0.211123 1.92452 137 125 103
0.0462126 -0.0745851 2.07301 21 15 9
0.0851323 -0.230289 1.92336 162 147 121
0.0790269 -0.222884 1.93138 137 123 100
0.0358868 -0.0155692 2.07212 83 72 55
0.0345173 0.104792 2.06959 44 31 15
0.0730234 -0.234007 1.93277 128 109 86
0.0219395 -0.0721703 2.09136 191 177 153
0.0216433 -0.00739014 2.08248 51 39 27
0.02295 0.143445 2.06816 60 47 26
0.0207297 0.103811 2.0774 32 23 11
0.0170815 0.0915256 2.08772 36 28 16
0.0144101 0.0709656 2.09117 42 35 23
0.021109 -0.14969 2.06547 149 130 101
0.0116175 0.110385 2.08929 87 74 52
0.00998086 0.124121 2.08884 36 25 12
0.00533302 0.155673 2.08579 4 3 1
0.00165197 0.0780577 2.10183 99 82 57
0.0208071 -0.22664 2.03673 68 60 42
0.000732537 0.136747 2.09541 69 61 46
0.00260194 -0.0729113 2.09413 208 198 180
-0.00136388 0.103534 2.10191 102 91 66
0.0112068 -0.186301 2.0605 203 199 187
0.0117001 -0.206175 2.05412 87 81 62
-0.0044888 0.0648332 2.10486 179 161 132
-0.00529264 0.114044 2.1042 82 73 55
-0.00394554 0.0456587 2.10144 84 74 53
-0.00420338 -0.0041985 2.10092 126 115 90
0.00506819 -0.2197 2.06337 90 83 61
-0.0103543 0.0545667 2.10919 35 28 19
-0.0120578 0.0746443 2.11423 43 35 22
-0.0168864 -0.0134971 2.13468 115 102 81
0.00353732 -0.206039 2.06353 93 86 62
-0.0165352 -0.0606519 2.10362 153 131 105
-0.00204299 -0.242118 2.05248 190 178 155
-0.0235845 0.0735831 2.12204 91 85 67
-0.0237145 0.0955855 2.1208 35 25 13
-0.0255008 -0.0146323 2.12758 41 33 21
-0.015969 -0.157278 2.07816 134 115 88
-0.0316563 -0.027384 2.12663 170 151 122
-0.0346207 0.0488251 2.12694 33 23 12
-0.0344549 0.127601 2.12278 76 65 41
-0.0398322 0.0834134 2.13323 34 24 13
-0.0302929 -0.0940132 2.09332 148 134 110
-0.0517611 0.0914788 2.14191 87 73 51
-0.0539676 0.108503 2.13985 81 68 46
-0.0558885 0.0745816 2.14519 152 136 112
-0.0503991 -0.0620749 2.10617 159 139 110
-0.0655094 0.0849039 2.15238 33 23 13
-0.0702649 0.123953 2.1529 82 72 51
-0.0704987 0.13719 2.15326 82 70 50
-0.0719222 0.0944743 2.15802 101 83 57
-0.0770647 0.0632481 2.15463 204 183 148
-0.0784622 0.074986 2.16001 126 107 76
-0.0836245 0.0899255 2.16506 165 145 113
-0.084592 0.152025 2.16165 65 64 62
-0.0593084 -0.320124 2.06805 214 204 187
-0.083327 0.165167 2.14567 157 166 166
-0.0879423 0.132112 2.16368 64 52 30
-0.0652591 -0.156225 2.07443 19 15 8
-0.0570963 -0.350563 2.03889 163 138 112
-0.0539797 -0.374023 2.02381 168 138 108
-0.0825739 0.0520882 2.12137 82 75 60
-0.0723117 -0.107977 2.08137 87 78 61
-0.0874354 -0.0192497 2.14266 114 105 86
-0.0962886 0.151656 2.1713 110 97 94
-0.0881689 -0.00567473 2.14214 86 79 63
-0.0938111 0.061309 2.15948 221 203 171
-0.0974445 0.0828133 2.17199 24 17 9
-0.0911086 -0.032766 2.14509 78 62 44
-0.0981338 0.164743 2.15494 158 166 167
-0.0944847 -0.0490669 2.1449 201 186 163
-0.106701 0.0939175 2.17837 142 122 89
-0.110331 0.149923 2.17719 68 64 64
-0.0816368 -0.340865 2.04718 84 60 38
-0.115993 0.079275 2.18063 32 24 13
-0.113575 -0.0458601 2.15668 37 28 18
-0.110269 0.0450422 2.13247 106 95 70
-0.125668 0.0750257 2.18542 54 41 26
-0.122463 0.04872 2.13708 106 95 70
-0.104588 -0.312608 2.06063 52 44 33
-0.144181 0.0870364 2.18807 168 147 115
-0.128495 -0.24803 2.06363 72 66 55
-0.167213 0.0406484 2.142 84 78 59
-0.148634 -0.1929 2.04183 29 21 12
-0.198538 -0.0128864 2.11551 59 52 39
-0.21054 -0.205743 2.05688 77 68 53
-0.210175 -0.0729751 2.03343 155 172 182
-0.214958 -0.246466 2.06118 100 88 73
-0.220671 0.0125152 2.07906 101 82 57
-0.215152 -0.174375 2.02737 147 169 184
-0.227718 -0.0350022 2.05379 77 77 71
-0.239608 -0.254716 2.05641 199 185 166
-0.261732 0.134114 2.09971 79 72 58
-0.267495 0.108686 2.0935 116 102 80
-0.282409 0.132183 2.00173 51 44 34
-0.320557 0.162871 1.98569 157 166 167
-0.0692638 0.190613 1.77924 158 167 167
-0.0915982 -0.191322 2.06529 107 100 86
-0.119931 -0.145146 2.06218 35 27 14
0.0147888 -0.0937835 2.08705 222 217 206
-0.141596 -0.314927 2.06647 183 164 137
0.230825 0.0671851 1.84033 31 26 18
0.0306721 -0.132708 2.09502 184 171 144
-0.0776447 0.107571 2.15991 131 112 80
-0.0678672 0.164607 2.11751 64 62 62
0.247181 0.0875324 1.90305 56 45 27
0.244698 0.106852 1.90367 80 69 45
0.224514 0.134158 1.91641 81 69 45
0.247719 0.0687126 1.84748 157 166 166
0.222242 0.0781041 1.919 121 95 59
0.216298 0.0870548 1.92414 112 89 54
0.201194 0.133646 1.93052 71 60 40
0.190774 0.113164 1.94273 83 73 50
0.199766 -0.0384891 1.91953 70 60 42
0.212597 -0.097496 1.87982 185 172 146
0.166765 0.10308 1.96255 76 66 47
0.157302 0.0073627 1.95659 26 18 8
0.127681 0.0741275 1.99721 77 61 35
0.177995 -0.152711 1.83737 115 100 77
0.128391 -0.0135648 1.9872 26 20 13
0.118266 0.0742555 2.00491 100 79 53
0.162391 -0.157506 1.85299 137 120 95
0.107529 0.091348 2.01288 85 70 49
0.11356 -0.10198 1.99844 145 128 99
0.106976 0.132216 2.00572 80 69 48
0.105992 -0.107779 2.00598 148 127 94
0.0991931 -0.090881 2.01934 97 82 59
0.0949235 0.0818519 2.02226 96 80 53
0.0915011 -0.00486647 2.01661 76 61 40
0.0681876 -0.0919381 2.05365 43 34 20
0.0631055 0.0702466 2.04832 96 88 65
0.0636616 0.122751 2.04189 41 29 15
0.0495995 -0.126816 2.05385 162 143 114
0.0796478 -0.21067 1.93478 115 103 80
0.0778157 -0.222407 1.93574 137 123 100
0.0718193 -0.233526 1.93715 128 109 86
0.0305372 0.0983768 2.07239 43 29 13
0.0359783 -0.144503 2.06008 197 189 171
0.0220757 -0.00736695 2.08088 51 39 27
0.0207699 0.103848 2.07725 32 23 11
0.0129977 0.0393822 2.09638 10 7 2
0.0119653 0.110424 2.08799 87 74 52
-0.00467832 0.114177 2.10185 82 73 55
-0.0060754 0.0747683 2.1067 41 33 21
-0.00360484 -0.00418398 2.09863 126 115 90
-0.00975546 0.0546393 2.10687 35 28 19
-0.0189391 0.0770993 2.11547 38 30 19
-0.0194012 0.103179 2.11281 71 59 39
-0.00568635 -0.207752 2.06862 141 127 104
-0.0116194 -0.194716 2.07335 98 89 67
-0.0541747 -0.373826 2.02466 168 138 108
0.279183 0.168251 1.84698 157 165 165
0.269037 0.0766707 1.87122 199 183 152
0.258264 0.0864112 1.89718 137 117 82
0.253381 0.107652 1.90147 28 21 10
0.246098 0.0935921 1.9097 94 79 51
0.247958 0.15737 1.89554 80 76 58
0.242031 0.126229 1.90913 32 22 9
0.244217 0.184549 1.88185 157 166 166
0.24239 0.00148546 1.87827 109 99 76
0.244108 -0.0437397 1.86917 168 153 126
0.232257 0.142771 1.91488 57 51 35
0.24808 0.069519 1.84266 114 122 121
0.231533 0.10534 1.9196 91 81 60
0.231127 0.0892886 1.92068 154 131 92
0.23295 0.180509 1.89394 75 73 72
0.236854 -0.0343686 1.88299 93 80 58
0.235273 0.0259678 1.88281 30 22 12
0.23672 -0.0560184 1.87523 173 159 131
0.231947 -0.00362503 1.89363 118 107 83
0.221859 0.0779029 1.92459 110 83 47
0.237061 -0.083872 1.85653 144 130 103
0.218069 0.113686 1.9297 82 73 52
0.226382 -0.0438464 1.89286 172 160 133
0.223655 -0.0195543 1.90022 155 140 109
0.224903 -0.059542 1.88963 131 115 90
0.230727 0.0667297 1.8418 34 27 13
0.227317 -0.0956591 1.86726 184 171 147
0.217421 0.0260477 1.90405 78 70 55
0.209081 0.1082 1.94052 126 106 71
0.217061 -0.0380983 1.90765 73 63 45
0.227301 -0.11285 1.84737 137 124 100
0.213147 -0.0526882 1.90444 109 96 74
0.210818 -0.0254137 1.91449 91 79 60
0.203208 0.0869128 1.93969 97 77 48
0.211876 -0.0797689 1.89473 132 114 85
0.205871 -0.0462169 1.91679 97 87 66
0.21213 -0.0972904 1.88718 194 182 159
0.212996 -0.119847 1.8643 189 179 158
0.199507 -0.0332921 1.92694 126 111 86
0.192874 0.0958716 1.94759 101 83 53
0.190517 0.112982 1.94731 82 71 48
0.201976 -0.0915791 1.89843 186 174 152
0.199451 -0.0816202 1.9105 151 138 114
0.201007 -0.119874 1.88629 151 139 117
0.188393 -0.0502406 1.93665 104 88 62
0.192442 -0.10559 1.90376 191 181 158
0.17646 0.0815821 1.95905 129 108 76
0.175082 -0.0467478 1.95304 91 77 57
0.170073 0.114342 1.96076 22 16 9
0.16966 0.0678648 1.96147 206 188 153
0.166252 -0.036448 1.96298 125 112 89
0.161452 0.0906835 1.97053 90 76 52
0.155258 -0.00274162 1.96609 25 17 9
0.15197 0.075135 1.97943 70 56 35
0.169207 -0.154017 1.85861 127 111 87
0.139917 0.0796983 1.98862 42 31 16
0.141776 -0.028204 1.9821 38 30 18
0.140382 0.176906 1.95719 158 166 167
0.139184 0.1452 1.96551 62 55 41
0.130914 0.0640111 1.98967 60 61 54
0.127601 0.0740733 1.99985 73 58 34
0.128306 -0.0135943 1.99003 28 22 15
0.12274 0.124849 1.99659 84 71 47
0.119291 0.10315 2.00297 83 71 49
0.112474 0.0763982 2.01276 41 33 18
0.107501 0.0913162 2.01417 89 74 52
0.106938 0.13209 2.00756 83 72 51
0.0948955 0.0818221 2.024 96 80 54
0.095145 0.0978826 2.02093 29 21 11
0.076041 0.0802958 2.03803 103 92 69
0.0714695 0.0958715 2.04099 34 25 14
0.063661 0.122755 2.04203 41 28 15
0.0631041 0.0702834 2.04862 96 89 67
0.0562019 0.0919881 2.05278 98 88 64
0.0496654 0.0480396 2.01604 11 7 2
0.0399774 0.0845375 2.06284 84 72 47
0.0368554 0.0698859 2.06938 35 26 14
0.0346868 0.104828 2.06831 44 30 15
0.0275965 0.0870177 2.07621 90 79 56
0.0229053 0.143061 2.06855 62 49 27
0.0207624 0.104108 2.07711 28 20 10
0.0146671 0.0760462 2.08884 104 91 64
0.010316 0.124185 2.08612 34 23 10
0.0091431 0.107008 2.08866 92 87 68
0.00397608 0.0876456 2.09589 103 85 57
0.00116952 0.136891 2.09176 69 61 45
-0.00474537 0.114291 2.09952 83 74 56
-0.0338965 0.127894 2.11744 75 64 40
-0.0695567 0.124416 2.14496 84 74 54
-0.0705998 0.165967 2.12938 157 166 167
-0.0838752 0.152653 2.15299 66 65 63
-0.0873997 0.13242 2.15701 64 51 30
-0.0944681 0.163426 2.14515 61 58 58
-0.102116 0.142462 2.16002 69 55 35
-0.140088 0.147694 2.17725 8 7 6
-0.183384 0.140988 2.15662 93 89 75
-0.193735 0.151271 2.15759 123 107 100
-0.206457 0.148627 2.13724 13 14 13
-0.220894 0.141609 2.12975 93 87 69
-0.224065 0.119981 2.12935 88 81 62
-0.233979 0.150468 2.1115 12 11 11
-0.241819 0.125549 2.11098 89 87 74
-0.260273 0.0965961 2.09521 61 52 37
-0.261728 0.134052 2.09419 76 67 51
-0.266494 0.0782927 2.08185 183 162 136
-0.267509 0.108831 2.08836 116 102 81
-0.27528 0.0940351 2.07965 140 115 87
-0.282371 0.131904 2.00555 41 34 24
-0.281669 0.0837501 2.06706 74 57 41
-0.28661 0.14644 2.0509 70 66 55
-0.287909 0.0769103 2.05461 154 133 109
-0.290562 0.0917075 2.05381 136 121 103
-0.295522 0.102773 2.04592 86 74 61
-0.299148 0.088308 2.03868 136 117 97
-0.306314 0.107429 2.03072 42 36 28
-0.307644 0.0810825 2.01801 51 46 37
-0.309859 0.127981 2.03083 108 94 78
-0.320462 0.162941 1.98948 157 166 166
-0.214474 0.0366079 1.84925 204 192 171
-0.170176 0.0716278 1.82575 104 100 79
-0.136872 0.0208788 1.8148 117 108 86
-0.207612 -0.182545 1.99447 149 170 185
-0.130257 0.0163904 1.82258 66 62 46
-0.134387 0.0293405 1.83277 56 46 24
-0.132959 -0.0154518 1.83456 123 111 89
-0.133551 -0.039818 1.83704 189 182 165
-0.126604 -0.00115853 1.8309 190 182 161
-0.118596 0.0116838 1.83066 108 105 83
-0.0981021 -0.0637442 1.81766 172 164 146
-0.120997 -0.226712 1.88395 118 118 98
-0.109423 -0.187907 1.86343 59 53 38
-0.0273479 0.0877741 1.68005 152 134 97
-0.0226981 0.167292 1.67079 61 58 45
-0.0820542 -0.284161 1.83773 152 147 131
-0.0921909 -0.189039 1.8611 62 57 39
-0.0130021 0.00956419 1.67666 157 145 116
-0.0115009 0.0201785 1.67346 126 110 81
0.0144361 0.0673094 1.63572 68 60 42
-0.0715085 -0.15333 1.84685 104 110 103
-0.068575 -0.305337 1.84773 210 201 187
-0.074001 -0.25053 1.86469 13 12 9
-0.0525263 -0.133686 1.81622 154 143 122
-0.0690072 -0.19847 1.85991 121 125 114
-0.00419758 -0.0692818 1.70186 151 136 109
-0.0685157 -0.320486 1.86929 202 187 165
0.0188163 0.0445851 1.65286 189 169 137
-0.0613867 -0.292547 1.85388 149 137 111
-0.0611064 -0.210687 1.8564 57 55 43
0.0275367 0.0662764 1.63637 163 144 107
-0.0644925 -0.309282 1.86846 76 68 49
0.0110732 -0.0597526 1.69148 116 103 78
-0.0593937 -0.292981 1.87049 189 177 156
0.0453941 0.147376 1.60586 100 92 77
0.0121014 -0.0722438 1.69151 145 130 106
