# .PCD v0.7 - Point Cloud Data file format
VERSION 0.7
FIELDS x y z normal_x normal_y normal_z curvature
SIZE 4 4 4 4 4 4 4
TYPE F F F F F F F
COUNT 1 1 1 1 1 1 1
WIDTH 595
HEIGHT 1
VIEWPOINT 0 0 0 1 0 0 0
POINTS 595
DATA ascii
0.15361063 0.071055479 1.9855986 -0.71636313 0.6712805 -0.19027969 0.10085678
0.17548415 0.26583529 2.02351 -0.91848886 0.011433056 -0.39528167 0.016425433
0.14651939 0.052931119 2.0593035 -0.47116706 0.740538 -0.47917122 0.072203755
0.076045014 -0.151409 2.037497 0.78246671 -0.54339373 -0.30408728 0.0683043
0.16049382 0.22617157 2.0843596 -0.71178645 0.10620499 -0.69432014 0.080673844
0.093603902 -0.062852763 2.1184614 -0.97448587 0.039436035 -0.22095728 0.021374837
0.052511491 -0.32180744 2.1203492 0.6850878 -0.27439761 -0.67480409 0.096604742
0.064664997 -0.33520567 2.1684625 -0.9063381 0.33849245 -0.25293115 0.072619013
0.068374112 -0.31031451 2.1915705 -0.94215512 0.33483809 0.015072456 0.078202792
0.045103498 -0.36063683 2.1875014 -0.75525659 0.64458847 -0.11871485 0.031697351
0.078906938 -0.18220052 2.1967561 -0.9879396 -0.11975618 -0.098152243 0.0080322661
-0.040458038 -0.23035689 2.1673071 0.18138729 0.86143857 -0.4743652 0.036652338
0.063346714 -0.29408616 2.2172601 -0.93368071 -0.0077953776 -0.35802168 0.056869332
0.012918598 -0.39892033 2.205559 -0.36200693 0.82529062 -0.43341237 0.055611555
0.040045824 -0.35184243 2.2333705 -0.79067099 0.33645329 -0.51150614 0.1462824
0.094179794 0.23660944 2.2450778 -0.93012935 0.13550086 -0.34131941 0.03496626
0.088303536 0.23771426 2.2668445 -0.95505065 0.10061595 -0.27884516 0.037318446
0.030301195 -0.30169752 2.266674 -0.4961268 0.29533044 -0.81647909 0.046789259
0.0343608 -0.22578706 2.2779353 -0.60344607 -0.10473959 -0.7904951 0.10531799
0.028774217 -0.11643402 2.2739975 -0.48868331 0.10253374 -0.86641532 0.017268423
-0.0040752417 -0.34476539 2.2708118 -0.11509382 0.21544603 -0.96970946 0.12911686
0.010722729 -0.29826719 2.276248 -0.34456924 0.15588057 -0.9257285 0.025555031
0.0052213985 -0.32198244 2.2760501 -0.30895737 0.16773327 -0.93616819 0.038609833
0.02428594 -0.10363184 2.277956 -0.59344029 0.24618389 -0.76630425 0.038254008
0.013420256 -0.080480225 2.2861767 -0.80095577 0.4388392 -0.40729612 0.051151074
-0.061703306 -0.24977429 2.2677472 0.40131247 0.10775894 -0.90958029 0.077313513
-0.095107965 -0.26555479 2.2970877 -0.45530024 -0.030162137 -0.88982689 0.050598826
-0.12966444 -0.25793719 2.2954748 0.078294642 -0.39950827 -0.91337997 0.072847381
-0.047581743 -0.15136705 2.3275368 0.046768859 0.77289277 -0.63281071 0.1460688
-0.0076289517 -0.085035369 2.3465786 -0.62439412 0.19295464 -0.75690192 0.053345427
-0.055116676 -0.10631374 2.3668287 -0.26021433 0.7537114 -0.60349613 0.068298802
-0.039302729 -0.050864492 2.3721104 -0.53573054 -0.051458992 -0.84281957 0.14850804
-0.051377799 -0.097156867 2.3739262 -0.40170628 0.54585069 -0.73530883 0.076980963
-0.079673953 -0.092065029 2.3920701 0.17728519 0.58379334 -0.79231012 0.12797099
-0.073180251 -0.080693461 2.3939645 -0.16015291 0.34725302 -0.92399478 0.13294484
0.11431681 0.18888564 1.9208729 0.25259876 -0.96356958 -0.087905966 0.13614781
0.095930584 -0.10162162 2.0870728 -0.93308181 0.26740822 -0.24052282 0.019921141
-0.082945496 0.11889593 2.1147854 -0.52746576 -0.59127998 -0.61005569 0.098339379
-0.018436944 -0.22744019 2.1754937 0.25869331 0.92683715 -0.2721228 0.044510871
0.13793731 0.23373502 2.1716022 -0.92942178 0.25181416 -0.2697494 0.10499706
0.10990947 0.17928824 1.7981921 -0.36462933 -0.86402982 -0.34712833 0.14098063
0.11447942 0.16547552 1.8142484 0.11248254 -0.70752525 -0.6976788 0.11972832
0.10894124 0.14239126 1.8240758 -0.024055082 -0.51736331 -0.85542774 0.093420103
0.11784588 0.15313113 1.8353766 0.1574315 -0.52271593 -0.83784455 0.15454581
0.084023587 0.19988905 1.8367195 -0.9072603 0.39512494 -0.14406615 0.23729943
0.079266585 0.21198367 1.8432299 0.9506157 -0.30722353 -0.04408614 0.17278555
0.15070868 0.18611458 1.940428 0.53649217 0.25514027 -0.80441248 0.14316511
0.13075195 0.31025741 2.0018477 -0.88851309 -0.32271314 -0.32619125 0.082137823
0.15947823 0.061529309 2.0606663 -0.56008667 0.61435461 -0.55576193 0.118766
0.099470884 -0.017789429 2.0273709 -0.96992892 0.046596821 -0.23888621 0.017895307
0.095282577 -0.091717362 2.0289013 0.89891982 -0.41913128 -0.12756248 0.03299303
0.15214679 0.19846472 2.0694408 -0.5485093 0.63490969 -0.54408383 0.058804788
0.12832665 0.18511377 2.0734138 -0.084237568 0.80504644 -0.58720028 0.059817046
0.0965937 -0.11051716 2.0700212 -0.93049234 0.36302963 -0.048923112 0.050933924
0.098987304 -0.094630867 2.0762169 -0.98256326 0.18012105 -0.046107426 0.029034402
0.058429629 -0.18716054 2.0669353 0.93383664 -0.23074168 -0.2733264 0.064196095
0.089606903 -0.028755359 2.0898154 -0.96537566 -0.085788406 -0.24635369 0.007958387
-0.04834722 0.10479077 2.0906529 -0.67060411 0.7158801 -0.19443691 0.15627068
0.11180569 0.25270805 2.2021797 -0.92496639 0.27214158 -0.26528493 0.047886159
0.075077325 -0.31227392 2.2210586 -0.86721462 0.037334912 -0.49653286 0.064350255
0.063085593 -0.33407104 2.2295859 -0.74538738 0.35718441 -0.56286496 0.067811422
0.040957354 -0.36461622 2.2318666 -0.72107476 0.50310963 -0.47637382 0.12427443
0.032929242 -0.37367305 2.2283099 -0.63263738 0.53928089 -0.55582917 0.10494756
0.065541223 -0.087179713 2.2463796 -0.68433416 -0.0090130121 -0.72911286 0.027144138
-0.1370496 0.18247303 2.1463375 -0.41254872 0.00036623914 -0.9109354 0.099359296
-0.12775041 0.21714307 2.1600547 -0.022928255 0.48830417 -0.87237221 0.088369191
0.045764495 -0.1248301 2.2595539 -0.60907561 -0.024364242 -0.79273784 0.012183661
0.017978048 -0.11940927 2.2753041 -0.51879317 0.19834007 -0.83157378 0.02582854
0.023291253 -0.080450408 2.2769332 -0.75192058 0.39085662 -0.53089219 0.04452806
0.00018158776 -0.12640613 2.2806849 -0.53845376 0.26407358 -0.80020791 0.03702249
-0.0074710427 -0.28091234 2.2887199 -0.20667548 0.29499653 -0.93287843 0.031840056
-0.024066873 -0.2560716 2.2939913 -0.0078266822 -0.016243581 -0.9998374 0.067766964
-0.017346561 0.21435238 2.2871289 -0.2905232 -0.23812549 -0.92676461 0.12057929
-0.11087997 -0.28768626 2.2807553 -0.48270133 0.29828203 -0.82342416 0.063961007
-0.12204783 -0.30898365 2.2766562 -0.29772294 0.47372308 -0.82882303 0.17145775
-0.12411019 -0.29639706 2.2843103 -0.27789348 0.4438526 -0.85192144 0.099188678
-0.11870908 -0.2694869 2.2900953 -0.14355491 -0.084553935 -0.9860236 0.10853634
-0.12914868 -0.28859213 2.2941773 -0.06424585 -0.025257278 -0.9976145 0.14813967
-0.020954141 -0.10471727 2.3457909 -0.60115886 0.34698129 -0.71986943 0.068387561
-0.027464038 -0.081691176 2.360244 -0.62487483 0.27974704 -0.72888476 0.078307226
-0.037686121 -0.08048591 2.3718789 -0.59155416 0.31000096 -0.74428701 0.10953313
-0.066021927 -0.052455474 2.3839896 -0.10917363 -0.4592832 -0.8815555 0.12173999
-0.07326664 -0.059508812 2.3857837 -0.040006988 -0.40979883 -0.91129822 0.17792335
0.094116539 0.19906315 1.8442622 0.99186409 -0.092015348 -0.087969959 0.25799975
0.13359292 0.18745074 1.9282129 0.01489735 0.10899194 -0.99393106 0.15243785
0.029183879 -0.3714726 2.1719642 0.90317208 -0.40253836 -0.14914128 0.065705776
-0.12074046 0.18167484 2.1545603 -0.1867241 0.3867504 -0.90308267 0.13782853
-0.12467181 0.15807928 2.1718881 0.91719949 -0.39098534 -0.076652326 0.15051346
0.14997819 0.26772127 2.0834427 -0.93332005 -0.026778666 -0.35804561 0.012558307
0.21613833 0.2620534 1.9315628 -0.93419164 0.06792523 -0.35024577 0.028301649
0.14228234 0.18719697 1.9344043 0.53649229 0.25514045 -0.80441236 0.14316517
0.13344051 0.018965572 1.9478697 -0.92991567 0.29015779 -0.22597651 0.034902751
0.12150627 -0.027121227 1.9707963 -0.9518736 0.1611104 -0.26073009 0.022770515
0.12337667 0.0026270163 1.9748654 -0.9144876 0.026192909 -0.4037652 0.023200614
0.11505772 -0.046008661 1.9783602 -0.95411026 0.14652915 -0.26115674 0.023463365
0.11681475 -0.023079943 1.9868728 -0.91872323 0.071006149 -0.38846585 0.020794425
0.13600588 0.061650652 2.0619953 -0.50096279 0.70336854 -0.50429052 0.07864932
0.080364682 -0.11609074 2.0465729 0.83881032 -0.31890699 -0.4412432 0.04651574
0.13751656 0.19844553 2.0854294 -0.065378569 0.77820218 -0.62460148 0.10754259
0.13069223 0.20473661 2.0985005 0.043027427 0.86725104 -0.49600852 0.18217951
0.12342867 0.21321467 2.1029384 0.035744026 0.95765615 -0.2856867 0.21071938
0.11440764 0.20293203 2.098717 0.31728423 0.84336907 -0.43365797 0.13769224
0.075913765 -0.12564361 2.0827353 -0.8184647 0.49716657 -0.28799462 0.02915033
0.045411404 -0.33425653 2.1267893 0.80150497 -0.11843028 -0.58614331 0.099193163
0.10174035 0.25974011 2.2360516 -0.94626284 0.012332652 -0.3231633 0.012134742
0.08639577 0.0067970511 2.2504432 -0.91673797 -0.07320112 -0.3927252 0.049550228
0.064578027 -0.2680077 2.2576358 -0.80809385 0.24592757 -0.53526068 0.051755998
-0.01426137 -0.39775276 2.2162309 -0.13674702 0.51872027 -0.84393692 0.0586055
0.05507198 -0.1091271 2.2590218 -0.62154031 -0.053049192 -0.78158396 0.013822444
0.089345761 0.25046876 2.2761567 -0.9657777 0.11502506 -0.23247084 0.036154181
0.0066371816 -0.3377113 2.2535913 -0.57360446 0.353145 -0.73909837 0.098815776
0.083599158 0.23860565 2.291857 -0.85312653 0.42069271 -0.30853316 0.097684257
0.037727319 -0.25922206 2.2794251 -0.57996923 0.044742316 -0.81340873 0.077926025
0.040986307 -0.049211349 2.2918904 -0.79064876 0.48966229 -0.36756697 0.03447536
0.0097056162 -0.12502417 2.2777879 -0.56247568 0.17809883 -0.80740446 0.025254402
-0.011476694 -0.31603205 2.2757752 -0.079433911 0.1881135 -0.97892976 0.037415009
-0.0040113567 -0.29385892 2.2838287 -0.25187409 0.25105637 -0.93462837 0.023374667
-0.044380385 -0.3509759 2.2675109 0.20931661 0.60506189 -0.76817095 0.060477499
-0.055123631 -0.15440114 2.2811456 0.52323109 0.40233067 -0.75123852 0.053052805
0.065952286 0.23424943 2.3428047 -0.32051966 0.72156233 -0.6136896 0.19897115
0.01323834 -0.055798043 2.3351173 -0.68740147 -0.074956201 -0.72239923 0.02850051
-0.020099537 -0.027897162 2.3265603 -0.67862952 -0.23798381 -0.69485652 0.13719194
-0.029915806 -0.1028455 2.3565593 -0.57054478 0.2586908 -0.77945995 0.06247865
-0.062971033 -0.076539941 2.3943796 -0.2121443 0.31414792 -0.92536801 0.13488875
0.12892632 0.024291996 1.9629155 -0.89844853 0.090864412 -0.42957395 0.030556424
0.18383907 0.096622407 1.9981916 -0.83856428 0.49726155 -0.22257783 0.048108082
0.1091033 0.027341017 2.0004926 -0.91108012 0.35781223 -0.20470358 0.060996339
0.14709021 0.18581614 2.0589914 -0.43942708 0.88811588 -0.1347373 0.040296525
0.09393809 -0.072596267 2.0573604 -0.99259758 0.10737021 -0.056759667 0.019113831
0.13805902 0.22824813 2.0976231 0.60063493 -0.78480327 -0.15271422 0.27050617
0.060854007 -0.15407315 2.054801 -0.8723858 0.48870587 0.010468784 0.085898392
0.058681339 -0.20154847 2.0674546 0.87780064 -0.20558812 -0.43266568 0.044366848
0.10930134 0.21496242 2.1084387 -0.020732548 0.91942233 -0.39272484 0.14791915
0.11135504 0.23025914 2.1381602 -0.58472866 0.65373665 -0.4803341 0.094339006
0.071306974 -0.21084829 2.2475908 -0.71233058 -0.079859808 -0.69728589 0.045854036
0.022102693 -0.36511919 2.2317176 -0.5682292 0.65845072 -0.49351627 0.15951428
0.0037101253 -0.38426259 2.2180431 -0.35918602 0.65143174 -0.66829795 0.058726348
0.039442599 -0.21125843 2.2522249 -0.55518901 -0.045370728 -0.83048582 0.053426247
0.014422162 -0.36769193 2.2681305 -0.42898917 0.45116055 -0.78257424 0.18217547
-0.0014597098 -0.10461147 2.283767 -0.75695014 0.36372492 -0.54289103 0.044925373
-0.022275165 -0.19995955 2.273129 0.022443378 0.1445604 -0.98924142 0.050413013
-0.016583858 -0.28436464 2.2918875 -0.16205764 0.31416026 -0.93543613 0.038347915
-0.060243692 -0.33034411 2.2688372 0.022362385 0.26392204 -0.96428478 0.050050028
-0.024697986 -0.27194545 2.2963362 0.029288499 0.19146253 -0.98106289 0.048128266
-0.080896683 -0.34107029 2.2636328 0.029758621 0.39162126 -0.91964513 0.053525053
-0.019142175 0.22928362 2.2928979 -0.16478065 0.21143374 -0.96340185 0.15830755
-0.054259863 -0.14448951 2.285188 0.63275814 0.66205174 -0.40162751 0.051073588
-0.095757961 -0.32590359 2.2622514 -0.022222273 0.42421189 -0.90529037 0.069495715
-0.017870577 0.22647111 2.3068616 -0.49435407 0.35211998 -0.79474866 0.24913512
-0.094127178 -0.30335245 2.2721503 -0.28045505 0.23691171 -0.93017083 0.053272266
-0.10671629 -0.32517546 2.2656319 0.1247646 0.46741936 -0.87518746 0.067488216
-0.09409456 -0.25598377 2.2770619 -0.31394786 0.099114567 -0.94425273 0.048144344
-0.096921548 -0.2674157 2.2760561 -0.49096584 0.0041842414 -0.87116873 0.053283546
-0.095361285 -0.24325463 2.2784171 -0.036518052 -0.23001143 -0.97250253 0.085971974
-0.020454306 -0.042172801 2.3315828 -0.64420527 -0.16550253 -0.74673194 0.13832872
-0.10159622 -0.29401425 2.2777786 -0.3368113 0.17808668 -0.9245773 0.03896068
-0.10590659 -0.30675557 2.2756476 -0.36633393 0.28607216 -0.88541633 0.096166976
-0.10327142 -0.25727499 2.281074 -0.34654191 -0.16740318 -0.92297608 0.059882361
-0.019412154 -0.038245309 2.3458724 -0.91707313 -0.051061496 -0.39543596 0.11342684
0.0026099044 0.042281989 2.3631616 -0.18494207 -0.2898179 -0.93904316 0.12224682
-0.12237903 -0.22802791 2.2765107 0.08429312 -0.44480449 -0.89165229 0.086111419
-0.058392249 0.27583715 2.3109262 0.29292798 -0.67047107 -0.68166101 0.11950946
-0.022600466 -0.057083599 2.3545921 -0.70256853 0.13941957 -0.6978249 0.122159
-0.0064840545 0.026474616 2.3646636 -0.026116353 -0.30665982 -0.9514609 0.18574145
-0.012527926 0.043849967 2.3596709 0.074505091 -0.19669673 -0.97762948 0.15426554
-0.11813151 -0.32019836 2.2963798 -0.25164631 0.47689503 -0.84216708 0.11279941
-0.03314798 0.063030571 2.3495359 -0.03279613 -0.31512445 -0.94848347 0.18642761
-0.13040465 -0.29919937 2.2954581 0.088857211 0.39599738 -0.91394222 0.13896455
-0.17132169 0.21587493 2.2634804 0.50676632 0.64779937 -0.56880909 0.14643703
0.0059832069 0.24126656 2.3288023 -0.016184762 0.52981764 -0.84795713 0.18695901
0.030745268 -0.37177065 2.159246 0.82680327 -0.49670905 -0.26396313 0.03899027
0.096319199 0.2322548 2.1600747 -0.757191 0.58388168 -0.2928206 0.12468792
0.22402765 0.26152515 1.9108461 -0.91228312 -0.3611635 -0.19313292 0.11825208
0.16366902 0.21456173 2.0392663 0.93215901 -0.34906083 -0.096104734 0.039586432
0.14553981 0.045046415 2.0211155 -0.42027473 0.89008069 -0.1764245 0.076137275
0.12147406 0.023927627 1.9932417 -0.92468488 0.33272853 -0.18506654 0.085537583
0.10753462 -0.019358626 2.0084312 -0.94031662 0.018564863 -0.33979416 0.019467434
0.15211919 0.22677466 2.077528 -0.71178645 0.10620485 -0.69432014 0.080673829
0.1546133 0.20574629 2.0885112 -0.63791853 0.42167339 -0.64440018 0.12130316
0.1244654 0.22060345 2.0941482 -0.21509004 0.81441784 -0.53894335 0.18765885
0.10715849 0.22489867 2.0965376 0.14358255 0.92255366 -0.35816041 0.15109867
0.08578451 0.21817893 2.0843916 0.34566802 0.82838088 -0.44079328 0.11580078
0.1211775 0.25703964 2.1372685 -0.8772313 0.32015088 -0.35772714 0.11635535
0.051085133 -0.17636721 2.0659142 0.96289504 -0.151521 -0.22332612 0.071153894
0.069116458 -0.31191209 2.103049 0.72817254 -0.46201602 -0.50626683 0.039447658
0.079431593 -0.10509976 2.1129918 -0.91498017 0.352229 -0.19684033 0.023736306
0.10250762 0.23132601 2.1292894 -0.32631996 0.86267245 -0.38640857 0.10481875
0.071802817 -0.28810626 2.1878786 -0.93539065 0.1531482 -0.31873178 0.067674085
0.073208921 -0.11420841 2.2020159 -0.97369874 0.071445063 -0.21634775 0.012064016
0.088035628 0.078950129 2.218652 0.94271958 0.105131 -0.31658691 0.11194872
0.066711202 -0.27348006 2.2078757 -0.89583969 0.16844854 -0.41121313 0.041549142
-0.025299309 0.1042209 2.0912166 -0.67060417 0.71588016 -0.19443674 0.15627067
0.076510906 -0.21302547 2.2300339 -0.85238373 -0.042875431 -0.52115625 0.045604199
0.077238671 -0.02497893 2.2267466 -0.91358441 0.30294189 -0.27127433 0.029442679
0.066389017 -0.25537136 2.2332554 -0.90406168 0.24237068 -0.35203534 0.060967926
0.058658581 -0.27152827 2.2275419 -0.87694126 0.41496229 -0.24244647 0.021326868
0.038294479 -0.35715982 2.2092922 -0.81057537 0.56389606 -0.15807857 0.065874435
0.051625811 -0.33820391 2.2252214 -0.66264629 0.52724004 -0.53190017 0.084015757
0.040401068 -0.35399136 2.2222698 -0.79024678 0.46860331 -0.39486822 0.11736195
0.018487109 -0.37876576 2.2247322 -0.2766515 0.76125377 -0.58647811 0.073988236
0.046189085 -0.24565804 2.2517815 -0.65114379 -0.12481014 -0.74862146 0.052897383
0.046640772 -0.07960923 2.2499716 -0.67819732 0.050751425 -0.73312533 0.023123641
0.047723763 -0.048319202 2.255429 -0.73573917 0.42826343 -0.52466977 0.030527283
0.041971359 -0.11340804 2.2556307 -0.60208482 -0.051024072 -0.79680014 0.014940645
-0.069917865 0.095811576 2.1268852 -0.68825215 -0.46137965 -0.55985516 0.24654414
0.034328274 -0.24602988 2.2708447 -0.49529365 0.013752474 -0.8686167 0.10978878
0.028517133 -0.27856201 2.2698243 -0.38118801 0.2369698 -0.89361125 0.047893316
-0.082412191 0.091014028 2.1283245 -0.12479765 0.58429527 -0.80188811 0.14980803
0.027709939 -0.25372681 2.2722514 -0.49554622 -0.031410772 -0.86801338 0.095509037
-0.01944707 -0.30625337 2.2820079 0.073152289 0.29220128 -0.95355499 0.04733181
-0.015047109 -0.18249564 2.2834032 0.062645875 0.059219863 -0.99627733 0.056128155
0.044980261 0.2418578 2.3371904 -0.023855032 0.99021488 -0.13749734 0.22359812
-0.024961649 -0.29371616 2.2904589 0.089867152 0.39318302 -0.91505802 0.040803831
-0.035250738 -0.16840513 2.282887 0.20441025 0.17556296 -0.96301305 0.053259656
-0.010966778 0.16941786 2.2959509 -0.41163224 -0.2284129 -0.88226217 0.10030222
-0.040497866 -0.21075839 2.285284 0.0075910874 -0.2722573 -0.96219456 0.059722364
-0.041101746 -0.14903516 2.2843966 0.33945563 0.65793741 -0.67222631 0.16579324
-0.06198648 -0.18952835 2.2776148 0.3079851 -0.34187356 -0.88784438 0.057678416
-0.025846658 0.092852391 2.3380125 0.33591855 -0.2710135 -0.90205896 0.098985322
-0.061405167 0.25091609 2.3071227 0.59336489 0.13151352 -0.79411733 0.12361246
-0.028805083 0.049945891 2.3525729 0.18386061 -0.33308879 -0.92479569 0.18036188
-0.10619172 -0.28201821 2.2890699 -0.53879875 0.22322729 -0.81232107 0.04652093
-0.12400591 -0.32341081 2.2779245 0.21345147 0.73831391 -0.63978988 0.14462356
-0.11330457 -0.29507607 2.2903864 -0.46826068 0.19708176 -0.86133081 0.074446499
-0.074853927 0.27788645 2.3052461 0.33566627 -0.53251463 -0.77701765 0.15504631
-0.13091549 -0.22982252 2.2698948 0.59155279 -0.60819495 -0.52930522 0.17073373
-0.12539838 -0.15641955 2.2836015 0.92562127 -0.28112447 -0.25336567 0.19391385
-0.14841659 0.19732231 2.2464514 0.71499979 0.61556035 -0.33145231 0.084762208
-0.13412869 -0.22465165 2.281904 0.21624529 -0.45025241 -0.86632013 0.07369747
-0.12070656 -0.28368899 2.2990429 -0.28548086 0.079951257 -0.95504373 0.067119107
-0.084870897 -0.063981771 2.3502488 0.47114667 0.087689713 -0.87768525 0.19312172
-0.16332144 0.20823383 2.2613311 0.1039796 0.64744002 -0.75498986 0.1758423
-0.079225793 -0.10698167 2.3662593 -0.082880788 0.69606459 -0.71317941 0.15030366
-0.21660508 0.25171515 2.2669489 0.22006606 0.090063564 -0.97131836 0.14943717
0.035512615 -0.31181031 2.2461965 -0.7649855 0.28154683 -0.57924831 0.05121376
-0.022549776 -0.33464816 2.2725437 0.14627129 0.40783903 -0.90126127 0.053281598
-0.0065561603 0.089383669 2.2001238 0.045900825 -0.92158598 -0.38545096 0.037733149
0.21946372 0.24492641 1.901058 -0.96774679 -0.24632588 -0.052818328 0.18014523
0.10919075 0.2064411 1.7989715 -0.79549241 -0.59160447 -0.13113356 0.14814152
0.12563397 0.044168919 2.0393562 -0.47678885 0.80960721 -0.34235737 0.056464378
0.12720925 0.18940802 2.0826101 0.012962616 0.76319474 -0.64603841 0.069981232
0.051464245 -0.21233882 2.0452304 0.72841352 -0.41577634 -0.54455829 0.060320247
0.098837115 0.23322493 2.182493 -0.82723379 0.37867382 -0.41507882 0.096212938
0.077285931 -0.25577638 2.2010148 -0.9351961 0.1667567 -0.31241077 0.034717862
-0.063513868 0.14820345 1.9667802 0.27992034 0.58565968 -0.76068878 0.16157821
0.079203919 -0.061388984 2.2184908 -0.89327294 0.15949845 -0.42026618 0.010967763
0.081090786 0.089081086 2.2413108 0.94271976 0.10513102 -0.31658629 0.11194879
0.040292356 -0.33624601 2.2291589 -0.60783005 0.34501064 -0.71519947 0.091568157
-0.034042526 0.11132413 2.0946248 -0.43075839 0.89409089 -0.12267314 0.11778855
0.064508073 -0.037221394 2.2639122 -0.72742027 0.45589197 -0.51285684 0.044638958
0.04983845 -0.27676982 2.258096 -0.69334751 0.1833629 -0.69688392 0.061668068
-0.048407786 0.090067461 2.1397083 -0.3947078 0.89415389 -0.21141104 0.16456819
0.0097558862 -0.3520045 2.269845 -0.28991237 -0.18299305 -0.93939573 0.10278717
-0.0020249465 -0.37758017 2.2629104 0.21690375 0.86368853 -0.45496684 0.11437885
0.0015111687 -0.20074931 2.2756708 0.28925908 0.18249625 -0.93969375 0.053230487
-0.00069789751 -0.14689586 2.2786238 -0.28311539 0.027426209 -0.95869362 0.0446354
0.052744668 0.26244721 2.3409634 -0.34097663 -0.2359243 -0.90998614 0.15325254
0.011777905 -0.089142442 2.3009598 -0.80113095 0.47804555 -0.3600857 0.036327269
0.019513499 -0.072268434 2.3176858 -0.77530634 0.41576079 -0.47543979 0.065584451
0.030323058 0.27515435 2.3331647 0.065647818 -0.99101168 -0.11655992 0.14003918
-0.020071784 -0.16936088 2.2857909 0.027564615 0.017089559 -0.99947399 0.037406195
0.02032912 0.25149721 2.3323202 0.54946578 0.19667166 -0.81203926 0.2601248
-0.049078196 -0.3360182 2.265692 0.068052255 0.41627294 -0.90668941 0.052143037
-0.071387 -0.35117933 2.2563944 0.071055911 0.68974829 -0.72055423 0.049704365
-0.069496445 -0.32875681 2.2754514 0.049252003 0.288524 -0.95620507 0.041692708
-0.040211275 0.18582273 2.3022752 0.28963065 0.73713028 -0.61053514 0.20390777
-0.069170669 0.19154717 2.2809155 0.44531161 0.6338101 -0.63244152 0.12952621
-0.096320942 -0.28503594 2.2814794 -0.4524534 0.079213962 -0.88826293 0.055805832
-0.052738126 0.12016112 2.3253343 0.31078127 -0.53151757 -0.78797477 0.12049079
-0.10784547 -0.32167992 2.2758503 -0.20062105 0.54038143 -0.81715304 0.12782696
-0.069306061 0.2447772 2.3065999 0.59145236 -0.0088536302 -0.80629128 0.16729599
-0.069109708 0.21552949 2.3135343 0.33769873 -0.40314591 -0.85054862 0.15656975
-0.036687255 -0.064906083 2.3716056 -0.57449651 0.1693213 -0.80080217 0.091678046
-0.083830632 0.23507376 2.2940361 0.29411927 -0.17339885 -0.93990779 0.2214897
-0.11186505 -0.30727229 2.2836766 -0.47049657 0.20985751 -0.85708392 0.10718071
-0.070282601 -0.1164133 2.3348937 0.13139851 0.97446805 -0.18206133 0.11974429
-0.058299292 0.053237718 2.3476136 0.2242182 -0.2105578 -0.95152074 0.18757863
-0.13457151 0.1792886 2.2439902 0.5015654 0.58785337 -0.63471287 0.14085226
-0.12186114 -0.3112559 2.2885993 -0.31752637 0.28356206 -0.90485889 0.12008843
-0.064915463 0.034209091 2.3503256 0.20616542 -0.084780715 -0.97483742 0.17879081
-0.12758045 -0.32096222 2.2879243 0.18382415 0.68546122 -0.70452225 0.11665137
-0.057151418 -0.036774341 2.3689301 0.012869991 -0.41590792 -0.90931565 0.07654532
-0.068365768 -0.015316064 2.3606336 0.073519759 -0.40581512 -0.9109934 0.16565332
-0.15618213 -0.16011873 2.2525949 0.97329605 -0.18843652 -0.13109702 0.065103799
-0.097469158 -0.064063795 2.3377709 0.81635207 0.27975428 -0.505279 0.18778341
-0.1637446 0.21601401 2.2701402 0.098756962 0.62577206 -0.77372885 0.16692872
-0.17310824 0.23732761 2.2657611 0.43064401 -0.72518599 -0.53726238 0.19092441
-0.20768055 0.23986171 2.2550197 0.37219441 0.81746346 -0.43957341 0.19507335
-0.21778606 0.27987763 2.2689819 0.42749736 -0.83022594 -0.35773012 0.18591048
0.091725558 0.24133003 2.1898296 -0.91484147 0.34523967 -0.20946258 0.052538753
0.035226107 -0.38617459 2.2257187 -0.48872793 0.76243567 -0.42407176 0.076827675
0.0089327255 -0.39109716 2.2123921 -0.29917604 0.82028955 -0.48746151 0.062120084
0.040612653 -0.28585011 2.2611108 -0.51207507 0.36558637 -0.7772553 0.037310656
-0.033676807 0.27295724 2.3090446 0.3292757 -0.13795368 -0.93410188 0.099400684
-0.10395812 0.2779794 2.2881801 -0.054628275 -0.96767777 -0.24620239 0.11472821
0.15919837 0.29676461 2.0277691 -0.88406348 -0.348809 -0.31106907 0.057398994
0.098674454 0.20220006 2.0787883 0.31051615 0.74113142 -0.59523439 0.11963028
0.12072384 0.24526694 2.1357713 -0.80993503 0.27056697 -0.52038324 0.085242838
0.085894696 -0.07240738 2.175627 -0.99874824 0.047894772 0.014421739 0.023114277
0.053730451 -0.32124645 2.174248 -0.95222259 0.27017149 -0.14240606 0.057605855
0.073511474 -0.12335709 2.2114799 -0.94455999 -0.017683495 -0.32786223 0.010446358
-0.049515903 0.17266825 1.9690435 0.19474237 0.78836888 -0.58356655 0.20642689
0.047936872 -0.15058766 2.2548716 -0.62283278 0.13299608 -0.77096778 0.024739143
0.055142444 -0.0080306334 2.2745013 -0.78710073 0.39910597 -0.47030514 0.039580453
0.016416214 -0.37880316 2.2402639 -0.41699037 0.85972387 -0.2949473 0.093556866
0.047406923 -0.018781856 2.2920911 -0.79799283 0.39908427 -0.45159638 0.04480103
-0.080622412 0.18947856 2.0042531 0.30827829 0.79788685 -0.51801652 0.10871504
0.021524919 -0.26700136 2.2684622 -0.35383245 0.11366691 -0.92837614 0.063961722
0.025154382 -0.070511699 2.2867417 -0.78474385 0.49914953 -0.36746001 0.029236469
-0.037345938 -0.24505781 2.1655791 0.028981749 0.90930367 -0.41512269 0.058560614
-0.10534376 0.22591251 2.0157471 0.54473692 0.79055417 -0.27979597 0.1056003
-0.013379025 -0.35677201 2.2573872 0.32597539 0.34085548 -0.88179225 0.12447901
-0.0055278381 -0.32705426 2.2769866 -0.15479507 0.1988574 -0.96772629 0.057134736
0.014080884 -0.042454965 2.3149884 -0.64195883 -0.30607679 -0.70299774 0.057292577
0.012674156 -0.060966596 2.3229411 -0.71573734 -0.012783272 -0.69825244 0.040521912
-0.051770989 -0.38181537 2.2256503 0.34504616 0.40620503 -0.84613276 0.067223504
0.0027630448 -0.050428096 2.3293648 -0.58569682 -0.27288541 -0.7632122 0.056210477
0.00026123624 0.275565 2.3239064 -0.13420427 -0.91826117 -0.37253925 0.14082444
-0.025111711 0.23712803 2.310389 -0.013954065 0.99286789 -0.11839997 0.15569466
-0.020923309 0.12953134 2.3255548 0.36389759 -0.45947093 -0.81022525 0.16097702
-0.052802272 -0.20937961 2.2850103 0.46454278 -0.13108303 -0.87579519 0.069566466
-0.039359882 0.14308198 2.3155031 0.28968528 -0.31395909 -0.90416384 0.14651044
-0.12391542 -0.1769139 2.1980796 -0.9981665 0.0064719571 -0.060181018 0.14003253
-0.12332949 -0.17581022 2.2127256 0.28756577 -0.088367812 -0.95367557 0.10909393
-0.044361327 0.022726452 2.3567739 0.37709275 -0.30820319 -0.87339097 0.15642017
-0.13056724 -0.16286772 2.2109542 0.99105334 0.067855425 -0.1149302 0.086584143
-0.059690692 0.096455358 2.3298156 0.3545239 -0.19169487 -0.91518623 0.12900452
-0.11009331 -0.33729556 2.2637584 0.26735333 0.68967265 -0.67295909 0.062809974
-0.06436944 0.066988751 2.3396597 0.32960501 -0.11330809 -0.93729496 0.17010231
-0.054434992 -0.01476709 2.363024 0.60588443 -0.44688034 -0.65818077 0.17249161
-0.08355426 0.25912058 2.30288 0.41001761 0.051562242 -0.91061896 0.11128533
-0.083811738 -0.082335062 2.3917599 0.21105373 0.37649572 -0.90205729 0.15920876
-0.19657685 0.2380728 2.2520616 -0.094040148 -0.69689929 -0.71097672 0.27139747
-0.20698208 0.22615157 2.254009 0.57155341 0.5649904 -0.59507358 0.17043807
-0.22008577 0.26108474 2.2681224 0.12381107 -0.025923872 -0.99196708 0.16341823
-0.13255806 -0.28427351 2.303304 -0.092022128 0.09990719 -0.99073225 0.09013544
-0.18847756 0.227386 2.2581258 0.16834497 0.42687139 -0.88850486 0.17811307
0.11694898 0.22108696 2.0863123 0.12652856 0.5687716 -0.81270492 0.09241458
0.080928892 -0.081033789 2.2049363 -0.95832026 0.12792309 -0.25545642 0.0086168069
-0.070211723 0.27739635 2.2956505 0.17463517 -0.85089535 -0.49545896 0.17415512
0.023629026 0.26749939 2.3237288 -0.058483969 -0.94769686 -0.31376782 0.24382229
0.016943686 0.25754192 2.322295 -0.84864521 0.15831307 -0.50471604 0.18633988
-0.057569198 0.019408625 2.3463974 0.40897655 -0.52037489 -0.74963194 0.18456933
0.20591572 0.22144322 1.9316921 -0.91101646 -0.015046427 -0.41209528 0.036132444
0.17683084 0.14976375 1.9703234 -0.87397557 -0.48353395 0.04859611 0.038024373
0.11956283 0.1988263 2.078234 0.052319746 0.67938668 -0.73191285 0.089423418
0.099806316 -0.038322531 2.0478222 -0.98504657 -0.034428451 -0.16881314 0.017735163
0.099031053 0.21529044 2.0832646 0.3293114 0.82843614 -0.45304245 0.13096035
0.019421963 -0.39070365 2.2091284 -0.46922129 0.78921616 -0.39619339 0.067267239
0.022287417 -0.23661257 2.2741048 -0.42359841 -0.092038341 -0.90116233 0.11550196
0.014828989 -0.19936563 2.2804878 0.21756038 0.24892196 -0.94377184 0.040387563
-0.0010956319 -0.33487797 2.2695258 -0.35512319 0.25684071 -0.89884388 0.076055646
0.0042503281 -0.17175344 2.2823343 0.1393591 0.023643391 -0.9899596 0.053457506
-0.0097502284 -0.3022036 2.2808259 -0.15996149 0.30237129 -0.93967229 0.030775899
-0.0077782571 -0.099312581 2.3177485 -0.70868731 0.58234036 -0.39829889 0.049374107
-0.036449336 -0.26605433 2.2894957 0.48437655 0.23700865 -0.84214383 0.11986405
-0.0422372 -0.24634597 2.2888229 0.60002601 0.31759572 -0.73423553 0.11747656
-0.053331025 -0.22143731 2.2870927 0.4240832 -0.11570851 -0.89820093 0.077742994
-0.054697346 0.17967051 2.2978349 0.58172023 -0.038985468 -0.8124541 0.098184831
-0.065558895 -0.029961931 2.3667686 0.2773324 -0.48549509 -0.82908458 0.10932682
-0.069915198 -0.0060533509 2.3570726 0.067823865 -0.22112642 -0.97288388 0.18160471
-0.13487753 0.23883833 2.284596 0.16986014 0.46438578 -0.86919123 0.15378268
-0.13361748 0.27850229 2.2920902 0.38647094 -0.45381385 -0.80292785 0.097336642
-0.17989169 0.20534854 2.2539303 0.12857717 0.96447694 -0.23076408 0.10986856
-0.050535776 0.007212128 2.3600717 0.48458514 -0.2362029 -0.84225023 0.20297585
-0.14047657 -0.29406604 2.3025861 -0.013809233 0.25139359 -0.96778649 0.10405989
-0.15659338 -0.29780877 2.295049 0.30063885 0.50665748 -0.80803126 0.10258869
0.010497143 -0.40531144 2.1916151 -0.41089591 0.86979616 -0.27316529 0.053153437
-0.14052893 -0.21940589 2.2519178 0.97441244 -0.20181933 -0.098941505 0.051136892
0.043425027 -0.34074625 2.0964375 0.67631984 -0.19541514 -0.71021432 0.079533599
0.14272942 0.20546807 1.8607783 0.34481543 -0.20662512 -0.91564637 0.13120916
-0.079463683 0.043139551 2.3328171 0.53177673 -0.82414502 -0.19493216 0.21356057
-0.079211526 0.011497192 2.3410125 0.037866332 -0.46940848 -0.88216883 0.17643203
0.049784221 0.27796951 2.3307333 -0.067995749 -0.97126317 -0.22808866 0.090574153
-0.090438649 0.26008055 2.2862821 0.58203477 -0.070156358 -0.81013185 0.22031654
0.050200652 0.26802424 2.328474 -0.31199464 -0.89368767 -0.32246223 0.24661064
0.02877944 0.25522736 2.3222904 -0.36727932 0.0030557842 -0.93010563 0.22130029
0.025205193 0.27646342 2.3192375 -0.18858233 -0.96995586 -0.1536954 0.19194616
0.002557131 0.27836761 2.3113189 -0.1187809 -0.98631048 -0.11437929 0.087427959
-0.030827697 0.02069431 2.348927 0.18563861 -0.24789856 -0.95083368 0.15478303
-0.037695136 0.045859214 2.3417938 -0.15285651 -0.33129331 -0.93106371 0.18691139
-0.054876734 0.0052524982 2.3482847 0.43667376 -0.1177602 -0.89187926 0.20518208
-0.070988446 0.047937013 2.3305299 0.21891826 0.12619153 -0.96754867 0.20038545
-0.087849915 0.27902395 2.2830908 0.13842689 -0.96833313 -0.20777097 0.11998488
-0.10767119 0.040754706 2.3338823 0.44570208 -0.37174699 -0.81434262 0.11905016
0.043420352 0.25256151 2.3517957 0.096838765 0.18587655 -0.9777894 0.12811203
0.043015473 0.26574934 2.3513346 0.018710917 -0.31230643 -0.94979715 0.12798846
-0.092357449 0.035562098 2.3437374 0.37635225 -0.52608317 -0.76262408 0.15535812
0.0017557748 -0.37270662 2.2716405 0.10659228 0.59434789 -0.79711276 0.096603848
-0.11305846 0.078338161 2.311954 0.070718847 -0.72443372 -0.68570739 0.16876465
-0.088873796 -0.19559439 2.2232196 0.70560259 0.15686719 -0.69102657 0.099316508
-0.029739309 0.11435862 2.3348484 0.12543654 -0.47549793 -0.87072808 0.12995094
-0.1006281 -0.096125662 2.373493 -0.6839624 0.030164531 -0.7288934 0.24264279
-0.081248939 0.064868465 2.3368475 0.41568488 -0.19861697 -0.88755697 0.094011813
-0.038869139 -0.24553145 2.2998106 0.52093065 0.079001777 -0.84993523 0.11078481
-0.10448273 0.029021302 2.3360095 0.15399046 -0.28301868 -0.94667172 0.16231558
-0.0015377234 -0.35741416 2.2711742 -0.11386575 0.065204829 -0.99135405 0.14160144
-0.11093653 0.056212667 2.3211246 0.51069778 -0.24423304 -0.82434094 0.14953682
-0.10280377 0.25641882 2.2959776 0.19009677 0.14399065 -0.97114879 0.1056511
-0.029099993 -0.35494402 2.2582166 0.36803091 0.60066146 -0.70975989 0.05689666
0.016279353 -0.39391786 2.2185705 -0.32121074 0.82459921 -0.465682 0.058084529
-0.12937392 0.052717954 2.3044155 0.49545133 -0.16566519 -0.85269165 0.24742322
-0.072518378 -0.17742391 2.2622285 0.57516658 -0.20323853 -0.79238725 0.091529474
-0.14743726 0.036519889 2.2853572 0.88398069 -0.29399458 -0.36351785 0.083904773
-0.045372933 -0.37933728 2.2180417 0.34504604 0.40620518 -0.84613264 0.067223474
-0.16596438 0.27341694 2.2739193 0.23438989 0.075254537 -0.96922553 0.13628443
-0.14340028 -0.0073805512 2.2558763 -0.83933741 -0.44551596 -0.31149337 0.0675437
-0.11293059 0.014465393 2.194813 0.74717861 -0.59546089 -0.29521245 0.052482866
-0.20152105 0.22025177 2.2400398 0.42341182 0.66192669 -0.61852688 0.20690566
-0.20390646 0.21011563 2.2371621 0.60719466 0.44500187 -0.65824616 0.21836968
-0.067905344 -0.3930549 2.1391954 0.63691688 0.77051818 0.025269497 0.03903928
-0.11514992 -0.33769259 2.177264 0.78416926 0.61733741 0.06303294 0.092824072
-0.081270367 -0.38149539 2.1444061 0.58552033 0.80876154 -0.055413604 0.052104086
-0.09583278 0.22589752 1.972284 -0.7435931 -0.6685828 -0.0081427917 0.088985778
-0.033926409 0.17180412 1.8869289 -0.62590528 -0.77734613 -0.063053168 0.20782033
-0.042608351 0.19805172 1.8226438 -0.45838857 -0.80765438 -0.37091008 0.16534716
0.16788223 0.28729516 2.0514917 -0.93358028 -0.031047108 -0.35702074 0.0078634135
0.1447528 0.2168043 2.1019051 -0.67421806 0.35455412 -0.6478591 0.18715422
0.12244657 0.19810885 2.0906353 0.17188634 0.8268612 -0.5354957 0.12174528
0.11039251 0.2118866 2.091475 0.3293114 0.8284362 -0.45304248 0.1309603
0.088069841 0.23845963 2.2536283 -0.93929935 0.10983317 -0.32504368 0.03949162
0.060834568 -0.066034384 2.243387 -0.70916557 0.16202369 -0.68617237 0.025362955
0.037060495 -0.061955843 2.2683439 -0.75175351 0.42649099 -0.5029633 0.028574975
0.035467625 0.24241237 2.3308399 0.033573326 -0.99943084 0.0032831614 0.16086002
0.018688884 -0.075720288 2.3048332 -0.7780512 0.52506638 -0.34487912 0.04084425
0.010356943 -0.18425187 2.2841208 0.27030894 0.15872771 -0.94959915 0.059505001
-0.0046348241 -0.38156772 2.2494173 0.17751846 0.8666746 -0.46622133 0.096302286
0.01855731 0.24311346 2.3252561 0.07463377 -0.89566326 -0.43842572 0.18125197
-0.0044168024 -0.098051704 2.32781 -0.68991512 0.41947389 -0.58996511 0.049687251
-0.0043354291 0.036484674 2.3542359 0.12748168 -0.34769085 -0.92890227 0.1535393
-0.011959245 -0.053424668 2.3439353 -0.65729523 -0.1716579 -0.7338233 0.080346838
-0.017959516 0.19873327 2.2945125 -0.46276563 -0.22413874 -0.85767698 0.12561946
-0.033579502 -0.3256354 2.2725072 0.18165104 0.30220434 -0.93577534 0.041193139
-0.014687059 0.024433907 2.3582778 0.10733876 -0.11690598 -0.98732531 0.19554973
-0.041159403 -0.3407928 2.2710054 0.16374607 0.43707418 -0.88439435 0.056693442
-0.020952757 -0.014590353 2.3492808 0.012794782 0.55017376 -0.83495224 0.18883377
-0.0239855 0.036447611 2.3538358 -0.060460199 -0.57142049 -0.81842721 0.1674706
-0.028580436 -0.068782426 2.3615351 -0.78395569 0.030787731 -0.62005281 0.13045554
-0.033110283 0.10368206 2.3286901 0.32335228 -0.50742143 -0.79872829 0.23680861
-0.038766097 0.066432722 2.3412104 0.060746476 -0.52829039 -0.84688795 0.15706886
-0.044454999 0.1026948 2.326653 0.060848549 -0.59031594 -0.80487555 0.22232294
-0.046784017 0.2375208 2.3019855 -0.16767451 -0.98561239 -0.021294178 0.13419357
-0.048386972 0.14652824 2.3080211 0.31832066 -0.39449546 -0.86200076 0.17165731
-0.043637652 0.053769264 2.3455923 -0.01684379 -0.25478411 -0.96685123 0.12512706
-0.05754948 0.11463358 2.3182313 -0.062367883 -0.55037397 -0.83258557 0.20597325
-0.066424496 0.17689081 2.2872219 0.68177277 -0.10121077 -0.72452897 0.096762009
-0.077897429 -0.26491991 2.2745085 0.008549626 -0.085803799 -0.99627537 0.087004013
-0.06145459 0.074980512 2.3332584 0.24823911 -0.45887643 -0.85311759 0.12642233
-0.06673865 0.05712571 2.3381836 0.43484071 -0.19659325 -0.87878585 0.18925674
-0.072847143 0.040552955 2.342015 0.14106226 0.050371602 -0.98871839 0.23589812
-0.072449081 0.013331839 2.3485816 0.53625441 -0.28629661 -0.79401857 0.18904266
-0.071926512 -0.024294224 2.3559799 0.33808148 -0.49985322 -0.79740053 0.16324675
-0.074016809 0.024000231 2.3455176 -0.20157531 -0.30523187 -0.93069911 0.27044648
-0.069707319 -0.07858856 2.3811529 -0.048118547 0.91754246 -0.39471579 0.21277492
-0.080090016 0.096798651 2.3182154 0.67989373 -0.51314718 -0.52385533 0.14943147
-0.082146049 0.21511559 2.2988863 0.48946649 0.18330352 -0.8525387 0.17893966
-0.069359891 -0.068712309 2.3918796 -0.09007667 -0.058475588 -0.99421668 0.11984701
-0.077548973 0.0015419521 2.3490083 -0.0053656748 -0.46399814 -0.88581997 0.17180386
-0.088378869 0.23537394 2.2839334 0.2643328 -0.20247574 -0.94293779 0.19521369
-0.080312133 0.032937855 2.3404841 -0.19825915 -0.91621041 -0.34821242 0.227725
-0.087279223 0.079991408 2.3224039 0.59986866 -0.58929622 -0.54119086 0.15500748
-0.076968759 -0.07450927 2.3869989 -0.20683856 0.48554099 -0.84939271 0.25232127
-0.097983122 0.22129399 2.2883537 0.46266174 -0.74968719 -0.47319469 0.1574081
-0.099883646 0.11504654 2.2939134 0.5747034 -0.18467776 -0.79725158 0.12808283
-0.1010263 0.20869309 2.2874851 0.56961054 -0.1761962 -0.80280674 0.23817225
-0.097083218 0.020595608 2.3352695 0.58815175 -0.025717827 -0.80834156 0.20323409
-0.09953358 0.056217875 2.3232398 0.88522142 -0.25712466 -0.38764668 0.24244414
-0.10334382 0.071521275 2.3147311 0.65212744 -0.58484918 -0.48237041 0.22479914
-0.091611363 -0.089071043 2.3846385 -0.0095156655 0.84407878 -0.53613466 0.21163113
-0.10079884 0.010565763 2.3351951 0.47709394 -0.32939482 -0.81478852 0.17798017
-0.10804731 0.088881411 2.3020663 0.045050945 -0.51672995 -0.85496235 0.16270477
-0.13698372 -0.22421677 2.2150764 0.97487777 -0.094010808 -0.20192878 0.06788303
-0.13430087 0.17254518 2.2228615 0.5785625 0.72479439 -0.37408346 0.19550939
-0.12457787 0.28034934 2.2872422 0.41705829 -0.45247197 -0.7882458 0.11143705
-0.14907943 0.15684979 2.2034407 -0.47385788 0.50833255 -0.71906656 0.21587491
-0.13595384 0.039773546 2.2925706 0.72692102 -0.33699828 -0.59834605 0.14139454
-0.14846164 -0.28849307 2.2965436 0.24150512 0.048725009 -0.96917552 0.17145428
-0.15399182 0.20767587 2.2486067 -0.256125 0.48274621 -0.83747005 0.19745447
-0.14772192 0.24655765 2.2814152 0.045575283 0.231456 -0.97177726 0.19991833
0.01632724 0.27678537 2.3258009 -0.24298534 -0.96644443 -0.083326429 0.18863402
-0.032491129 -0.24349934 2.1757507 0.18912117 0.93656796 -0.29508257 0.087809615
-0.024090579 0.27540073 2.3153617 0.23024479 -0.4614208 -0.85678357 0.13189766
-0.087492228 0.27951854 2.2994218 0.15386501 -0.97840708 -0.13800435 0.1110572
-0.065239735 0.09362597 2.3201184 0.43914151 -0.42533275 -0.79135758 0.17395817
-0.079078682 0.27805272 2.2895391 0.20294504 -0.95367885 -0.2220583 0.1113397
-0.036053754 0.11201903 2.3191104 -0.16009882 -0.59669834 -0.78633285 0.24706681
-0.058013462 0.12737943 2.3036416 0.053500324 -0.68732375 -0.72437823 0.14677742
-0.074224144 -0.02659815 2.3453515 0.51209784 -0.44987944 -0.73168594 0.18080713
-0.082840651 0.095074698 2.3052626 0.58348197 -0.11624096 -0.80376416 0.087259464
-0.10119987 0.22000743 2.2733088 0.25855044 -0.95586669 -0.13953662 0.1951489
0.21633694 0.24834475 1.8828862 0.61556768 0.14006124 -0.77553803 0.12725544
0.17755665 0.26693135 2.0022559 -0.8915596 0.011086367 -0.45276767 0.018785885
0.16208084 0.21448451 2.0762208 -0.6492238 0.53467691 -0.54095191 0.077161044
0.14522108 0.21135235 2.0934808 -0.55061108 0.50513119 -0.66458249 0.19124192
0.13504179 0.21172182 2.092411 0.023149369 0.68010426 -0.73274988 0.15648103
0.098385878 0.25423735 2.2147481 -0.95216751 0.19783892 -0.23288824 0.038678534
0.086876132 0.27227116 2.2464454 -0.9587934 -0.0062256176 -0.28403601 0.011726609
0.065165341 -0.017948784 2.2723961 -0.7480011 0.45212206 -0.48588073 0.043022819
0.054117434 0.24448721 2.3315156 0.33131197 0.9324041 -0.14441244 0.21569498
0.04126896 0.27414861 2.3262439 0.093181647 -0.97565585 -0.19852673 0.14752477
0.030869523 -0.28875476 2.2752464 -0.41283423 0.24048859 -0.87848341 0.049266852
0.02260641 -0.29412776 2.2698636 -0.41302127 0.28096026 -0.86629951 0.053695712
0.026540862 0.23357485 2.2920938 -0.21098211 0.84016633 -0.49960694 0.093069471
-0.0023894736 -0.081591398 2.3338652 -0.64323395 0.32098463 -0.69513965 0.054869279
-0.0082154023 -0.34000477 2.2796485 -0.025719006 0.30276963 -0.95271671 0.095670708
-0.014461914 0.27546868 2.3092496 0.0039823367 -0.95464939 -0.29770583 0.072097383
-0.017539209 0.074338309 2.3416245 0.35476232 -0.322303 -0.87764704 0.13409822
-0.031223563 -0.25213632 2.301126 0.011767692 -0.049789563 -0.99869043 0.072576568
-0.026798246 0.11225232 2.3243814 0.62210244 -0.40348023 -0.67096376 0.17658469
-0.028268745 0.070223078 2.3419611 -0.063628495 -0.13414234 -0.98891717 0.17307338
-0.039149374 -0.36617798 2.2415137 0.31903598 0.7037698 -0.63476294 0.050345425
-0.034165539 0.12856308 2.3161268 0.4452135 -0.40203092 -0.80009747 0.22824061
-0.036807027 0.21735196 2.3095345 -0.56811112 -0.066159636 -0.82028806 0.1512623
-0.051571809 -0.29419422 2.281265 0.38743052 0.14917281 -0.90974993 0.10825789
-0.0479513 -0.086192779 2.362114 -0.41239452 0.26672176 -0.87108564 0.09851303
-0.050524633 0.090737395 2.3291309 0.2473252 -0.23479308 -0.94005454 0.20884064
-0.058371637 -0.13432646 2.2781937 0.67978275 0.56028348 -0.47326308 0.067125805
-0.069092453 0.13720033 2.3017802 0.17175034 -0.77693719 -0.60569829 0.10690019
-0.073722988 0.079952158 2.3267057 0.58868128 -0.38967586 -0.70824218 0.2002023
-0.079962969 -0.099776685 2.3827748 0.18473712 0.54312617 -0.81907636 0.15423135
-0.089765333 -0.09884917 2.373456 -0.31277904 0.7157706 -0.62437302 0.22908346
-0.09179315 -0.077381179 2.3863876 0.0032918197 0.90069836 -0.43443269 0.15037252
-0.098326989 -0.027873624 2.343668 0.53303963 -0.25616783 -0.80637878 0.11472127
-0.1004018 0.10535208 2.2965527 0.79561329 -0.15170583 -0.58650213 0.17901012
-0.10027501 0.032292232 2.3274179 0.13192151 -0.91101682 -0.39069799 0.23681913
-0.10096319 -0.081749588 2.3779674 -0.13720681 -0.98885322 -0.057823595 0.22565155
-0.10943726 0.046166088 2.3152983 -0.77653211 -0.2117319 -0.59343708 0.2222151
-0.11588513 0.079772234 2.296572 0.51120973 -0.73037744 -0.45300481 0.21603671
-0.13933004 0.16903812 2.212194 0.54633093 0.72098476 -0.42626694 0.2657091
-0.13991761 0.15344302 2.2105901 0.88553178 0.16636969 -0.43376791 0.24434389
-0.15291761 0.19109136 2.2234149 0.59035021 0.59310806 -0.54745728 0.069507301
-0.18824545 0.21019265 2.2435436 -0.046214636 0.81195486 -0.58188784 0.20119998
-0.21439685 0.24151139 2.2386479 0.8631413 0.49998969 -0.070693046 0.21422866
-0.031740088 0.030050529 2.3530269 0.37462226 -0.36359555 -0.85291058 0.1754252
-0.12452617 -0.32745457 2.2678363 0.32863519 0.76391894 -0.55536187 0.093914069
-0.19993143 0.28140354 2.2654715 0.28024763 -0.95482808 -0.098816134 0.1651874
-0.067154802 0.048987042 2.3452275 0.48693591 -0.067288592 -0.87084192 0.18007636
-0.016781181 -0.085632727 2.3506672 -0.5998438 0.29282674 -0.74460727 0.069027349
-0.066194795 0.21651241 2.3010426 0.6187675 -0.48197713 -0.62034255 0.18583433
-0.083932325 0.020144701 2.3340378 0.05515746 -0.59571487 -0.80129987 0.21969087
-0.11147747 0.27331051 2.2796116 -0.050941166 -0.98457849 -0.16736259 0.079095013
-0.081226453 0.03097195 2.3299243 0.098933913 -0.9277066 -0.3599619 0.27050218
-0.10080735 0.053460408 2.3105841 -0.75937825 -0.34523216 -0.55150646 0.197846
-0.044381425 0.05214563 2.3342767 0.31847075 -0.57546127 -0.75327337 0.18067898
-0.053290468 0.035492208 2.337822 0.5608902 0.01370698 -0.82777667 0.1771771
-0.063750051 0.14253429 2.2923243 0.2662499 -0.53583026 -0.80124706 0.13826366
-0.06925004 0.033265781 2.3307202 0.53322071 -0.11574376 -0.83802092 0.19546732
-0.073085472 0.13068701 2.2926226 0.28348646 -0.53964251 -0.79273039 0.12277296
-0.073654786 0.21504873 2.2917564 -0.25706729 0.31381226 -0.91402316 0.23859912
-0.083152033 0.042818595 2.3225286 0.6515215 -0.29690009 -0.69811898 0.23689379
-0.086141646 0.079706244 2.3080873 0.68306714 -0.097207971 -0.72385758 0.18982439
-0.089635849 0.23355351 2.2698958 0.33478644 -0.39641753 -0.85485154 0.23451447
-0.10367075 0.096065961 2.2875218 0.99715567 -0.022275539 -0.072003379 0.15669104
-0.10413447 0.072254956 2.2970459 0.86889899 -0.11916042 -0.48043239 0.15865676
0.20983016 0.091210522 1.9974828 -0.93463302 0.33498105 -0.11936846 0.04006872
0.17460778 0.087874755 2.0514567 -0.88594419 0.17129196 -0.43100119 0.0317946
0.017155023 -0.24365547 2.2680974 -0.39483032 -0.062495019 -0.91662616 0.11548091
0.011921706 -0.22406709 2.2676437 -0.25176197 -0.0404035 -0.96694547 0.10187277
-0.0040632407 -0.064667948 2.3334241 -0.60293078 -0.11204497 -0.78988636 0.06248568
0.0016630787 -0.21565007 2.2707245 0.11755988 0.14846642 -0.98190498 0.065111302
-0.019338451 -0.067666277 2.3494837 -0.56873959 0.14128505 -0.81029242 0.1342293
-0.010854783 -0.35059032 2.2658603 0.24581107 0.29347897 -0.92382193 0.13115609
-0.019440973 -0.22767194 2.2733598 -0.16794471 -0.2303746 -0.95849997 0.060887236
-0.041104343 0.073860869 2.33477 0.19985282 -0.35201821 -0.91440803 0.17862371
-0.044791959 -0.10373951 2.3571873 -0.50928503 0.61584413 -0.60113627 0.090810999
-0.037848458 -0.34138033 2.2582681 0.37663555 0.60231936 -0.70381612 0.049218848
-0.059323736 -0.071456246 2.3865395 -0.16729555 0.11045746 -0.97969961 0.24337621
-0.055968955 -0.0020883307 2.3552022 0.55253965 -0.17941375 -0.81394762 0.19158529
-0.056646977 -0.11323605 2.3388555 -0.12418349 0.93937957 -0.31960049 0.048991095
-0.058156095 -0.10763794 2.3254111 0.024633417 0.96845531 -0.24796665 0.10184601
-0.070628151 -0.34580535 2.2662165 0.051032908 0.48610947 -0.8724066 0.041443169
-0.071072392 -0.14607449 2.2643576 0.65101397 0.32785201 -0.68461221 0.061015237
-0.073581226 0.24430114 2.2952142 0.35622725 0.17628877 -0.91761887 0.1597216
-0.090100117 -0.34132969 2.2688067 0.056284387 0.41415724 -0.90846354 0.058218352
-0.099714741 -0.071729802 2.3767543 0.25374162 0.79980648 -0.54398972 0.26093081
-0.096311547 0.046530627 2.3221207 0.46764013 0.84208274 -0.26871791 0.21211641
-0.090995267 -0.16635844 2.2286894 0.67901605 0.29134095 -0.67383802 0.06185066
-0.10343502 0.017850006 2.3271215 0.81495935 -0.40030965 -0.41903874 0.26358306
-0.10604396 -0.27136171 2.2859786 -0.48980933 0.075482793 -0.86855584 0.05502044
-0.11184864 0.06662783 2.304529 -0.30267781 -0.75377357 -0.58327657 0.24372497
-0.11109874 0.11183328 2.2818532 0.91666532 -0.10835195 -0.38468745 0.15627974
-0.11705355 -0.31680682 2.2811313 -0.19455221 0.55728894 -0.80720413 0.15162791
-0.1439881 0.27965513 2.2760723 0.33093581 -0.12752663 -0.93499649 0.11581209
-0.14570892 -0.10652273 2.1998236 0.87684292 0.053192329 -0.4778254 0.058001205
-0.15307821 0.20046663 2.2381322 0.68045944 0.59753793 -0.4241738 0.087324291
-0.16495758 0.24479829 2.2709231 0.3459847 -0.37798971 -0.85873067 0.22289835
-0.16540284 0.2084913 2.2503681 -0.58822554 -0.80228776 -0.10161221 0.11321182
-0.21104722 0.21028662 2.2260382 0.50321138 0.76165897 -0.40823269 0.26857504
-0.058387779 0.27809507 2.2992845 0.2338136 -0.69224817 -0.68273252 0.12203493
-0.084838659 0.043240372 2.3028862 0.43258283 -0.34962261 -0.83104521 0.11515556
-0.21404257 0.26826093 2.2479422 0.329983 -0.94369841 0.023332806 0.22815226
-0.22121607 0.24672881 2.2570839 -0.43203911 0.3505373 -0.83094275 0.23484127
-0.10260516 0.063705854 2.3078039 -0.98482746 -0.1495657 -0.088005289 0.20795508
-0.10965171 0.052402351 2.304728 -0.49345085 -0.526739 -0.69213605 0.26230189
-0.077267461 -0.0008065963 2.3382041 0.2279093 -0.014384849 -0.97357613 0.17616817
