ply
format ascii 1.0
element vertex 1263
property float x
property float y
property float z
property uchar red
property uchar green
property uchar blue
end_header
-0.233262 -0.114025 1.61291 31 37 47
-0.202611 -0.269193 1.60184 52 62 72
-0.192296 -0.30036 1.59885 10 11 12
-0.199123 -0.284827 1.59874 138 142 147
-0.198375 -0.287353 1.59645 49 58 62
-0.211465 -0.201651 1.59973 58 66 76
-0.209416 -0.257657 1.59279 139 144 148
-0.207008 -0.281843 1.59104 102 97 90
-0.182857 -0.309821 1.58916 61 67 66
-0.205341 -0.243357 1.59318 34 36 38
-0.242254 -0.109321 1.59911 59 70 83
-0.221205 -0.17734 1.5938 69 80 90
-0.203968 -0.288643 1.57854 157 150 144
-0.228005 -0.17498 1.58187 51 55 59
-0.243034 -0.131747 1.5831 169 166 167
-0.240857 -0.134363 1.58193 158 166 166
-0.202973 -0.162387 1.58035 59 67 73
-0.199979 -0.160638 1.57978 158 166 166
-0.247607 -0.12902 1.57635 156 153 156
-0.24345 -0.173993 1.57214 34 36 33
-0.208834 -0.230495 1.56768 166 156 142
-0.243819 -0.176306 1.56475 198 192 184
-0.201365 -0.266099 1.55882 78 90 103
-0.247933 -0.128364 1.56458 36 45 53
-0.230318 -0.184362 1.56057 78 89 98
-0.248365 -0.132395 1.56262 89 106 121
-0.212258 -0.232098 1.55363 165 158 153
-0.223804 -0.201736 1.55481 51 57 67
-0.25054 -0.121235 1.55907 14 20 30
-0.215106 -0.220046 1.54551 195 188 183
-0.195429 -0.246289 1.54344 144 167 184
-0.270353 -0.105571 1.54849 71 83 96
-0.272641 -0.105016 1.54371 59 72 86
-0.276139 -0.104868 1.53301 67 79 93
-0.332169 -0.13783 1.73077 158 166 166
-0.244736 -0.168576 1.60931 158 167 167
-0.269315 -0.110122 1.55277 51 60 70
-0.219819 -0.123562 1.64032 56 65 77
-0.197599 -0.283268 1.62662 66 71 75
-0.202115 -0.247923 1.62236 145 167 184
-0.204006 -0.252594 1.6217 44 51 59
-0.201697 -0.273042 1.61971 107 108 113
-0.210559 -0.273411 1.61317 93 103 112
-0.242491 -0.110553 1.60172 57 69 85
-0.216466 -0.303279 1.58446 171 168 164
-0.247288 -0.109115 1.59328 60 71 84
-0.222898 -0.291739 1.57174 149 147 144
-0.252097 -0.115666 1.58283 60 71 87
-0.259618 -0.111501 1.568 114 125 132
-0.212745 -0.114328 1.66044 70 82 94
-0.211697 -0.126708 1.65777 171 169 165
-0.193605 -0.222666 1.64767 172 171 172
-0.194224 -0.219824 1.64737 133 132 133
-0.194791 -0.216584 1.6454 32 39 45
-0.194367 -0.225579 1.64316 138 135 128
-0.217932 -0.113954 1.65144 74 84 93
-0.199556 -0.20654 1.64404 67 77 88
-0.201027 -0.199749 1.6431 158 156 158
-0.194803 -0.22753 1.64087 186 183 182
-0.202614 -0.279727 1.63754 126 130 135
-0.201984 -0.204083 1.64025 132 138 146
-0.201606 -0.207777 1.63903 59 61 66
-0.220744 -0.113025 1.64582 67 79 92
-0.203802 -0.195792 1.63885 49 54 61
-0.20649 -0.186808 1.6395 82 94 105
-0.198679 -0.225207 1.63632 144 138 119
-0.222253 -0.114146 1.64362 74 88 102
-0.197765 -0.227372 1.6335 186 179 174
-0.20008 -0.219766 1.63369 19 23 27
-0.198868 -0.230125 1.63186 171 167 161
-0.200224 -0.227111 1.63092 149 150 153
-0.218202 -0.137884 1.63763 137 136 139
-0.219332 -0.135601 1.63778 187 180 168
-0.207763 -0.278502 1.62477 63 67 72
-0.209243 -0.281764 1.6221 38 46 52
-0.211215 -0.249444 1.62405 25 27 29
-0.212444 -0.239065 1.62472 102 109 118
-0.21054 -0.285482 1.61916 64 68 75
-0.213425 -0.251324 1.62116 67 74 83
-0.216024 -0.239931 1.62137 117 120 126
-0.213847 -0.273731 1.61892 153 152 150
-0.214474 -0.279544 1.61739 137 139 143
-0.217496 -0.242 1.61905 154 148 146
-0.230932 -0.111744 1.62669 71 78 89
-0.214328 -0.292445 1.61111 186 186 185
-0.225239 -0.181586 1.61739 64 75 87
-0.224496 -0.155454 1.6183 32 37 44
-0.224527 -0.141321 1.61807 70 84 96
-0.21514 -0.294619 1.608 124 120 119
-0.225503 -0.159382 1.61545 33 39 46
-0.217322 -0.290913 1.60721 59 65 65
-0.234365 -0.122818 1.61715 186 180 182
-0.220455 -0.275054 1.60576 37 44 49
-0.219688 -0.295495 1.59937 54 64 71
-0.221418 -0.289906 1.59721 16 19 22
-0.215203 -0.311588 1.59508 163 156 141
-0.216217 -0.312199 1.59207 179 173 165
-0.227158 -0.162978 1.5941 158 167 167
-0.228892 -0.162725 1.59147 159 167 167
-0.229709 -0.165099 1.59136 64 72 82
-0.229327 -0.257147 1.58317 36 43 52
-0.23126 -0.283685 1.57647 28 33 38
-0.229544 -0.263851 1.57685 23 26 30
-0.254739 -0.107727 1.57876 58 69 84
-0.252731 -0.123345 1.57668 55 61 70
-0.250969 -0.168604 1.57274 142 137 138
-0.249576 -0.179633 1.56736 62 73 85
-0.237181 -0.234628 1.56118 188 178 165
-0.250692 -0.176589 1.56566 198 191 183
-0.254707 -0.17174 1.56519 66 75 87
-0.246528 -0.204226 1.55246 89 100 111
-0.269515 -0.128578 1.50752 13 16 19
-0.270213 -0.133043 1.50578 173 169 169
-0.26614 -0.128341 1.47013 134 132 134
-0.264599 -0.132104 1.47368 71 72 75
-0.252675 -0.213365 1.47335 150 170 184
-0.233206 -0.109404 1.48359 85 91 97
-0.230963 -0.110603 1.48623 79 83 88
-0.24706 -0.192509 1.47975 80 85 91
-0.245438 -0.22668 1.47808 79 85 92
-0.245592 -0.183358 1.48173 158 147 139
-0.239769 -0.282648 1.47424 166 162 158
-0.245582 -0.180296 1.48255 116 110 106
-0.245758 -0.187632 1.48208 163 153 145
-0.243707 -0.201144 1.48225 154 155 159
-0.245102 -0.191388 1.48345 50 53 54
-0.239188 -0.247663 1.4815 87 101 113
-0.237199 -0.285718 1.4805 21 23 26
-0.238116 -0.241657 1.48487 63 72 81
-0.235246 -0.268158 1.48307 33 35 36
-0.235947 -0.262691 1.48364 39 41 43
-0.239249 -0.235482 1.48621 37 38 38
-0.236998 -0.255354 1.48473 30 31 33
-0.231086 -0.137584 1.49591 38 43 49
-0.237448 -0.193177 1.49142 159 158 158
-0.238253 -0.225913 1.48938 77 86 93
-0.238029 -0.235899 1.48876 50 56 60
-0.233905 -0.269455 1.48662 19 21 21
-0.234165 -0.212559 1.49239 152 145 142
-0.231547 -0.12863 1.50159 74 88 104
-0.232657 -0.297532 1.4882 194 183 155
-0.232281 -0.294807 1.48859 142 131 106
-0.231672 -0.272307 1.49086 98 107 115
-0.23263 -0.124753 1.50278 12 14 16
-0.232236 -0.248385 1.49553 51 58 67
-0.231461 -0.298782 1.4931 196 192 187
-0.231314 -0.242275 1.49897 34 36 37
-0.230749 -0.264199 1.4976 169 165 163
-0.231104 -0.292186 1.49553 47 49 45
-0.230183 -0.296473 1.49578 128 122 111
-0.230253 -0.293179 1.49885 14 16 17
-0.229078 -0.250596 1.50303 54 57 59
-0.224379 -0.200507 1.50736 197 198 202
-0.227873 -0.266822 1.50378 161 150 141
-0.226298 -0.21708 1.50835 196 191 189
-0.228014 -0.254345 1.50558 113 108 104
-0.227193 -0.283027 1.50348 106 95 78
-0.22784 -0.264057 1.50544 150 137 122
-0.227757 -0.275883 1.50458 136 125 113
-0.227566 -0.259887 1.50593 89 81 76
-0.228535 -0.297263 1.50354 27 29 29
-0.228124 -0.247696 1.5078 82 75 72
-0.227965 -0.256676 1.50735 55 56 57
-0.227124 -0.239446 1.51132 50 51 51
-0.226538 -0.232704 1.51234 34 34 35
-0.22849 -0.294853 1.50808 91 83 70
-0.223392 -0.20874 1.51503 182 176 173
-0.227095 -0.263172 1.51084 48 51 56
-0.22688 -0.268251 1.51049 111 104 100
-0.226898 -0.274136 1.5102 150 141 132
-0.228455 -0.29893 1.50832 189 181 175
-0.226873 -0.236154 1.51335 47 46 46
-0.219627 -0.171983 1.52024 174 165 157
-0.225222 -0.245184 1.51442 81 84 84
-0.22818 -0.297354 1.51168 177 173 169
-0.225865 -0.286312 1.51319 87 75 58
-0.2255 -0.284242 1.51347 168 159 145
-0.228399 -0.294263 1.51269 19 22 22
-0.22778 -0.28918 1.5132 169 157 143
-0.225545 -0.239722 1.51718 150 144 138
-0.226078 -0.259958 1.5164 119 116 111
-0.225735 -0.226727 1.52007 50 53 57
-0.228328 -0.294474 1.51472 155 147 140
-0.225569 -0.23237 1.5199 172 162 154
-0.225295 -0.263741 1.51774 65 68 70
-0.226083 -0.247823 1.51947 158 145 133
-0.228079 -0.29198 1.51641 18 19 20
-0.224802 -0.229844 1.5222 78 74 74
-0.225545 -0.257294 1.52013 113 109 105
-0.225918 -0.234281 1.52208 28 26 24
-0.217475 -0.136187 1.5306 129 121 120
-0.225391 -0.244075 1.5222 147 137 130
-0.224996 -0.287485 1.51891 180 172 163
-0.21882 -0.193686 1.52701 126 114 107
-0.217534 -0.128095 1.53264 61 63 66
-0.225787 -0.251506 1.52302 37 37 36
-0.228616 -0.294512 1.51998 128 154 175
-0.218033 -0.141319 1.53249 105 97 93
-0.224593 -0.227542 1.52624 77 78 79
-0.224894 -0.267462 1.52392 60 61 61
-0.227051 -0.245378 1.52772 18 19 20
-0.224596 -0.282013 1.52496 88 85 83
-0.225024 -0.280746 1.52874 27 27 28
-0.215205 -0.16973 1.54188 155 147 142
-0.21712 -0.144709 1.54549 80 86 90
-0.21548 -0.163823 1.5444 119 112 108
-0.215165 -0.17087 1.54392 105 98 96
-0.225663 -0.263779 1.5373 109 103 100
-0.217559 -0.1094 1.55315 39 43 48
-0.215144 -0.158892 1.55056 90 88 92
-0.214191 -0.162201 1.55518 150 146 146
-0.214655 -0.156714 1.55632 49 52 55
-0.214255 -0.16481 1.55699 90 84 83
-0.217912 -0.142343 1.55904 68 74 79
-0.215307 -0.159433 1.55857 84 86 90
-0.217202 -0.111015 1.56695 62 70 79
-0.213499 -0.113413 1.57215 73 80 86
-0.252797 -0.301067 1.4899 179 171 157
-0.251456 -0.293451 1.49359 192 189 181
-0.227476 -0.171632 1.52441 92 84 79
-0.237598 -0.266689 1.524 44 45 47
-0.213881 -0.107755 1.56444 48 52 56
-3.07487 -0.420057 1.35476 129 129 132
-2.31769 -0.293338 1.40313 106 110 116
-2.19416 -0.271267 1.41021 78 82 87
-1.97081 -0.232836 1.42273 69 76 81
-2.36445 -0.360744 1.39383 52 58 67
-1.85544 -0.312908 1.42253 63 69 78
-1.83951 -0.266639 1.4231 17 18 20
-1.37009 -0.212595 1.45405 69 78 90
-1.31649 -0.18382 1.45728 62 69 73
-1.55624 -0.284404 1.43889 108 105 107
-1.57787 -0.299269 1.43673 128 119 119
-2.15433 -0.387293 1.39614 145 139 136
-1.38129 -0.264088 1.44863 140 138 139
-2.30487 -0.49818 1.38114 146 168 184
-1.74703 -0.342309 1.41945 124 118 117
-1.17144 -0.240186 1.4602 123 130 137
-0.896523 -0.152166 1.47892 72 82 89
-1.60764 -0.334081 1.42683 150 139 133
-0.80663 -0.168302 1.48394 180 178 178
-1.5384 -0.332872 1.43016 159 148 139
-1.79936 -0.424709 1.41066 40 42 42
-1.54779 -0.34535 1.42888 116 121 128
-1.43143 -0.312511 1.43682 120 112 107
-1.67655 -0.420009 1.41811 76 84 90
-1.52698 -0.369837 1.42838 78 87 96
-1.598 -0.413867 1.42278 75 84 92
-1.36541 -0.329949 1.43943 33 32 32
-0.899371 -0.23838 1.47329 128 125 127
-1.51901 -0.392959 1.42739 31 32 33
-0.582506 -0.148738 1.49565 69 78 87
-1.58997 -0.496048 1.41912 196 193 190
-0.681795 -0.168881 1.48695 73 88 104
-1.29263 -0.378343 1.4409 83 95 107
-0.514129 -0.123759 1.49879 70 78 83
-0.729992 -0.219042 1.48277 152 150 152
-1.29709 -0.411926 1.43955 77 87 96
-1.22287 -0.373645 1.44494 92 106 117
-1.29615 -0.423317 1.43923 117 115 112
-1.23172 -0.39481 1.44352 74 84 95
-1.13726 -0.354613 1.44997 82 92 100
-1.14877 -0.37364 1.44859 34 35 35
-1.12297 -0.376284 1.44987 26 27 28
-0.378621 -0.113022 1.50601 46 49 53
-0.367129 -0.132355 1.50701 91 97 103
-0.533648 -0.190991 1.49395 127 130 136
-0.838452 -0.286656 1.47054 151 142 137
-1.06593 -0.386164 1.45268 73 78 81
-1.1443 -0.431263 1.44571 40 45 50
-0.875197 -0.308796 1.46604 98 110 120
-0.771157 -0.285802 1.47396 124 117 110
-0.896584 -0.322786 1.46401 54 60 65
-0.413989 -0.168946 1.50111 150 150 153
-0.385394 -0.175907 1.50219 103 102 104
-0.869136 -0.367372 1.46407 120 121 121
-0.831372 -0.364774 1.46617 143 141 137
-0.931465 -0.403302 1.45829 131 128 122
-0.740071 -0.328234 1.47255 123 128 136
-0.140254 -0.114067 1.51872 85 87 89
-0.621507 -0.282056 1.48063 83 87 86
-0.717083 -0.346471 1.47294 22 24 27
-0.620779 -0.277594 1.48058 170 160 150
-0.199699 -0.137426 1.51298 89 97 105
-0.222606 -0.158223 1.51113 92 95 99
-0.754324 -0.379234 1.46844 189 178 149
-0.182538 -0.150961 1.51346 55 60 67
-0.565479 -0.301959 1.48297 112 119 126
-0.568914 -0.321451 1.48181 155 151 146
-0.58103 -0.332876 1.48068 124 122 120
-0.563075 -0.327631 1.48178 28 28 29
-0.122034 -0.135811 1.51697 47 50 56
-0.442195 -0.274112 1.49077 139 139 141
-0.236742 -0.201853 1.50699 195 196 199
-0.444192 -0.28173 1.49011 57 61 64
-0.45569 -0.293417 1.489 111 113 115
-0.346281 -0.242812 1.49768 183 172 161
-0.0725689 -0.138077 1.51934 71 77 84
-0.0811424 -0.14904 1.51855 108 110 115
-0.0720859 -0.145063 1.5192 146 143 141
-0.420458 -0.29169 1.49082 166 162 161
-0.370206 -0.269275 1.49449 83 84 87
-0.417714 -0.298748 1.49049 63 58 52
-0.00953044 -0.118582 1.52343 110 113 118
-0.0173194 -0.124238 1.52277 134 139 145
-0.0484302 -0.149278 1.52011 81 83 90
-0.476468 -0.335007 1.48489 150 140 117
-0.328375 -0.27238 1.49656 150 147 146
0.0916465 -0.0946555 1.53076 108 109 109
0.0109794 -0.124226 1.52416 74 82 92
0.0229713 -0.11812 1.52511 140 140 143
-0.348689 -0.295237 1.49422 44 48 49
-0.345884 -0.298888 1.49414 104 94 76
0.0915236 -0.108596 1.52901 60 66 72
0.0227487 -0.15507 1.52297 113 100 93
0.0987525 -0.11305 1.52915 169 161 152
0.167241 -0.089734 1.53459 125 130 136
-0.288418 -0.303782 1.49592 115 108 99
0.0801606 -0.142682 1.52656 184 172 164
0.11451 -0.123829 1.52934 129 125 121
0.104915 -0.137739 1.52807 114 105 101
0.124086 -0.12721 1.52964 153 147 142
0.156466 -0.111469 1.53201 173 166 162
0.180459 -0.104598 1.53361 108 106 104
-0.0892895 -0.240148 1.51019 89 80 76
0.184569 -0.112269 1.53327 166 159 153
-0.0914524 -0.243219 1.50984 150 140 131
-0.115277 -0.255558 1.50781 78 76 74
0.246721 -0.0885142 1.53832 126 122 121
0.0639888 -0.173739 1.52283 180 174 170
-0.103091 -0.25135 1.50867 43 46 46
-0.124875 -0.267387 1.50674 106 95 79
0.181244 -0.123821 1.53252 73 70 68
-0.113273 -0.263103 1.50756 118 111 101
-0.0957909 -0.256179 1.50872 135 122 110
-0.126251 -0.271974 1.50612 176 164 145
-0.0653918 -0.243496 1.51094 116 107 99
0.280373 -0.081477 1.54029 55 58 61
-0.000261275 -0.210961 1.51637 45 45 45
0.216686 -0.113663 1.53472 67 60 54
0.193609 -0.128549 1.53275 157 148 142
-0.00465584 -0.215448 1.51579 155 142 112
0.308981 -0.0610465 1.54192 60 65 67
0.227645 -0.121549 1.53479 119 110 101
0.268003 -0.101795 1.53795 130 120 111
-0.0291161 -0.252398 1.51228 62 60 59
0.0555934 -0.206011 1.51943 145 140 136
0.242024 -0.132747 1.53459 100 93 89
0.079895 -0.20708 1.52053 39 44 49
0.279718 -0.113748 1.53775 79 80 80
0.10434 -0.192191 1.52255 46 44 42
0.288336 -0.109555 1.53838 68 64 61
0.295351 -0.106431 1.53891 158 150 144
0.352296 -0.0784452 1.54373 97 92 92
0.291253 -0.115951 1.53815 173 165 157
0.340562 -0.088574 1.54243 188 180 171
0.33704 -0.0910248 1.54204 191 182 173
0.0418806 -0.243707 1.51623 152 143 135
0.232798 -0.149632 1.5326 119 113 113
0.379806 -0.0790682 1.54495 112 103 95
0.406758 -0.0572985 1.54688 106 114 112
0.203802 -0.168577 1.52895 175 167 164
0.359437 -0.101671 1.5423 86 84 87
0.13583 -0.211682 1.5226 19 19 20
0.371168 -0.0956176 1.54316 42 42 45
0.201956 -0.179498 1.52819 133 131 127
0.0830188 -0.246191 1.5174 85 79 68
0.406516 -0.0839928 1.54578 121 113 107
0.217111 -0.18042 1.5288 154 146 139
0.0983529 -0.245997 1.51822 134 123 101
0.38169 -0.106189 1.54313 119 113 113
0.185861 -0.198041 1.52579 72 68 66
0.343606 -0.128472 1.53957 133 121 114
0.412189 -0.0892781 1.54547 156 153 151
0.461698 -0.0560039 1.54962 41 43 45
0.408628 -0.100032 1.5448 105 99 97
0.205499 -0.20241 1.52662 124 115 101
0.273417 -0.162353 1.53259 55 57 61
0.381214 -0.119704 1.54202 82 72 65
0.278679 -0.166211 1.53258 173 163 155
0.188339 -0.224819 1.52426 152 135 111
0.239274 -0.193709 1.52876 120 117 112
0.402234 -0.11976 1.54296 125 115 110
0.175309 -0.232698 1.52265 97 91 87
0.503261 -0.0546454 1.55171 79 86 94
0.477193 -0.0760479 1.5493 67 71 76
0.457296 -0.0964522 1.54736 173 164 149
0.451815 -0.101906 1.54672 110 98 92
0.469913 -0.0906997 1.54828 136 133 134
0.483616 -0.0783551 1.54944 129 122 119
0.281649 -0.185968 1.5313 126 124 122
0.277516 -0.191378 1.53083 65 68 70
0.301164 -0.175388 1.53282 153 140 128
0.260929 -0.203832 1.52907 174 163 152
0.221728 -0.224035 1.52531 19 21 21
0.349422 -0.153006 1.53679 31 32 34
0.457251 -0.109009 1.54635 124 115 111
0.314518 -0.177801 1.53331 81 87 87
0.314023 -0.188215 1.53283 164 160 155
0.331719 -0.177689 1.53417 85 86 87
0.521076 -0.0820322 1.55106 54 56 60
0.39395 -0.146101 1.53931 43 46 50
0.359634 -0.170413 1.5359 93 98 97
0.52557 -0.0916048 1.55086 119 113 112
0.315699 -0.203506 1.53171 124 117 107
0.287303 -0.214688 1.529 136 125 111
0.359951 -0.177672 1.53562 94 96 96
0.584698 -0.0477489 1.55599 84 91 97
0.390368 -0.170593 1.53741 31 32 35
0.549953 -0.0937383 1.55178 182 172 163
0.376885 -0.194034 1.53542 175 168 163
0.341981 -0.205678 1.53212 30 31 33
0.402242 -0.176143 1.53765 154 145 137
0.464291 -0.134807 1.54333 30 30 30
0.397037 -0.180373 1.53704 67 71 71
0.357667 -0.201034 1.53313 105 100 93
0.636545 -0.0423441 1.55875 119 121 123
0.427702 -0.168068 1.53935 108 101 95
0.445876 -0.152934 1.54097 132 124 117
0.650466 -0.0365191 1.55967 121 128 126
0.653607 -0.0391214 1.55973 138 146 151
0.454857 -0.162679 1.54091 95 90 87
0.507664 -0.127262 1.54568 152 143 135
0.43513 -0.180815 1.53858 24 26 28
0.616459 -0.0871811 1.55521 103 97 97
0.645925 -0.0475107 1.55799 9 10 10
0.650702 -0.0635081 1.55812 52 52 52
0.654021 -0.0610419 1.55841 80 86 90
0.646144 -0.0751396 1.55742 78 75 74
0.500901 -0.146802 1.54377 105 101 101
0.474728 -0.170331 1.54126 137 130 125
0.689665 -0.0390973 1.56148 60 65 70
0.701136 -0.0314781 1.56236 68 75 80
0.648212 -0.0787052 1.55728 104 97 94
0.479112 -0.175584 1.54122 91 87 86
0.484198 -0.170853 1.54166 118 111 108
0.679798 -0.0654533 1.55946 139 138 138
0.526639 -0.15674 1.54469 119 115 112
0.699935 -0.056798 1.56078 108 114 111
0.55006 -0.142142 1.54622 21 22 26
0.742133 -0.031114 1.56438 40 43 48
0.554644 -0.14466 1.54632 12 14 16
0.708983 -0.0645868 1.56088 135 130 131
0.726728 -0.0410856 1.56211 58 62 67
0.760493 -0.0326349 1.56522 63 70 77
0.749869 -0.0548098 1.56334 34 35 37
0.76576 -0.0431997 1.56409 65 71 74
0.801743 -0.0252347 1.56753 47 50 53
0.800883 -0.027264 1.56742 95 103 110
0.770481 -0.0543692 1.56437 97 98 101
0.610161 -0.152343 1.54803 70 65 63
0.618602 -0.14879 1.54866 53 51 51
0.784434 -0.0629173 1.56446 182 178 178
0.83229 -0.0278727 1.56893 90 91 97
0.81507 -0.0559476 1.5664 153 149 148
0.82789 -0.05144 1.5672 49 52 54
0.863258 -0.0201713 1.57075 113 117 121
0.702254 -0.126608 1.55449 138 162 181
0.701004 -0.129499 1.55429 83 79 76
0.871334 -0.0229663 1.57104 51 56 63
0.843562 -0.0544794 1.56774 92 86 84
0.885228 -0.0236859 1.57168 88 91 95
0.858675 -0.0507632 1.56863 121 121 122
0.868523 -0.0468346 1.56927 89 89 92
0.883724 -0.0432755 1.57004 33 34 35
0.925854 -0.0189658 1.57386 59 64 69
0.972562 -0.0154576 1.57628 58 63 68
0.985589 -0.010375 1.57712 68 76 82
0.987854 -0.011725 1.57717 65 70 75
-0.313836 -0.126355 1.53578 106 110 116
-0.328772 -0.159203 1.53364 178 173 171
-0.29319 -0.124561 1.53173 164 163 164
-0.283312 -0.122575 1.52957 69 78 90
-0.31467 -0.18825 1.522 124 118 117
-0.277232 -0.156529 1.52391 148 145 146
-0.257182 -0.122439 1.52356 180 178 178
-0.307973 -0.1963 1.51964 159 148 139
-0.304351 -0.191099 1.51918 131 122 119
-0.312042 -0.236857 1.51815 75 81 89
-0.29997 -0.206899 1.51789 33 32 32
-0.244957 -0.120642 1.52068 69 78 87
-0.230841 -0.120968 1.51727 91 97 103
-0.232186 -0.151579 1.51329 141 135 130
-0.230948 -0.154601 1.51302 62 69 77
-0.20668 -0.121037 1.51113 87 92 99
-0.251643 -0.294098 1.50482 176 169 149
-0.251848 -0.28948 1.50476 173 162 147
-0.24466 -0.281885 1.50519 122 120 117
-0.237776 -0.274412 1.5035 117 116 114
-0.231287 -0.278585 1.502 41 41 39
-0.197496 -0.151431 1.50497 78 85 90
-0.18278 -0.155423 1.50106 54 53 53
-0.17949 -0.140081 1.50116 129 122 117
-0.175586 -0.098048 1.50096 60 65 67
-0.211709 -0.271055 1.49692 162 150 139
-0.169929 -0.141692 1.49874 188 180 170
-0.202292 -0.276221 1.49429 27 26 26
-0.16295 -0.101959 1.49768 106 114 112
-0.200597 -0.281936 1.4937 134 118 94
-0.160647 -0.152213 1.4957 135 131 128
-0.155224 -0.105417 1.49565 41 43 45
-0.189808 -0.255283 1.49199 39 42 41
-0.144046 -0.106394 1.49279 71 78 84
-0.144035 -0.151747 1.49151 52 54 58
-0.139473 -0.0958762 1.49161 70 76 78
-0.143776 -0.164572 1.49077 134 127 126
-0.134462 -0.106647 1.49015 75 73 71
-0.12881 -0.103815 1.48882 119 121 123
-0.127183 -0.0966691 1.48845 121 128 126
-0.12194 -0.101054 1.48707 105 117 126
-0.119646 -0.104632 1.48642 60 65 70
-0.113898 -0.0941542 1.48499 53 57 62
-0.110723 -0.0980438 1.48415 40 43 48
-0.101581 -0.103458 1.48171 62 69 78
-0.0994202 -0.0952054 1.4812 47 50 53
-0.0992787 -0.0983875 1.48115 95 103 110
-0.0955324 -0.0928424 1.48021 68 75 80
-0.0924006 -0.102989 1.47932 90 91 97
-0.0867038 -0.0937396 1.47787 113 117 121
-0.0851442 -0.0980831 1.47746 51 56 61
-0.0809099 -0.100791 1.47634 127 132 137
-0.0756076 -0.0919102 1.47494 58 62 67
-0.072017 -0.0990059 1.47397 59 64 69
-0.0595698 -0.100675 1.47062 187 184 182
-0.0582602 -0.0909387 1.47034 68 76 82
-0.0574402 -0.0936509 1.47009 65 70 75
-0.280443 -0.124295 1.53771 92 95 102
-0.27817 -0.104545 1.53614 69 76 81
-0.268897 -0.122467 1.53339 164 163 164
-0.279013 -0.159163 1.53121 63 69 78
-0.27319 -0.159073 1.52879 108 105 107
-0.26949 -0.156466 1.52732 140 138 139
-0.264884 -0.153369 1.52523 123 130 137
-0.245067 -0.121428 1.52437 180 178 178
-0.242029 -0.120337 1.5209 69 78 87
-0.282183 -0.268764 1.5157 77 87 96
-0.281765 -0.262992 1.51506 74 84 95
-0.279414 -0.275478 1.51465 33 35 36
-0.281029 -0.2453 1.51441 37 39 41
-0.234233 -0.121192 1.5169 93 98 104
-0.277471 -0.250782 1.51334 42 46 51
-0.276206 -0.273125 1.51294 73 78 81
-0.244495 -0.162918 1.51518 93 102 110
-0.242212 -0.152413 1.51431 150 150 153
-0.268502 -0.280701 1.51052 44 49 55
-0.238412 -0.155311 1.51244 62 69 77
-0.271185 -0.299134 1.50926 160 149 117
-0.265319 -0.286646 1.50902 114 115 117
-0.263895 -0.280002 1.5085 22 24 27
-0.235028 -0.140629 1.5102 89 97 105
-0.2334 -0.159313 1.51022 92 95 99
-0.266969 -0.300654 1.50705 146 136 113
-0.231994 -0.155861 1.50954 55 60 67
-0.221383 -0.12229 1.51001 87 92 99
-0.258022 -0.282523 1.50607 28 28 29
-0.230879 -0.146056 1.50831 47 50 56
-0.262561 -0.302873 1.50503 179 170 155
-0.237998 -0.202112 1.50689 195 196 199
-0.254843 -0.265183 1.50509 111 113 115
-0.248754 -0.224586 1.50548 191 182 174
-0.227944 -0.153091 1.50686 71 77 84
-0.22679 -0.163895 1.50684 108 110 115
-0.226507 -0.160594 1.50678 146 143 141
-0.25351 -0.26806 1.50425 166 162 161
-0.225184 -0.167574 1.50582 81 83 90
-0.225236 -0.14214 1.50581 130 129 132
-0.258038 -0.301125 1.50258 150 140 117
-0.223549 -0.138957 1.50525 146 142 142
-0.223847 -0.146458 1.5051 74 82 92
-0.250291 -0.28082 1.50222 44 48 49
-0.249474 -0.283371 1.50169 153 143 127
-0.246831 -0.253932 1.50175 120 117 113
-0.220521 -0.140957 1.50398 91 91 94
-0.221248 -0.14847 1.50384 58 61 64
-0.211941 -0.120328 1.50431 93 98 105
-0.220045 -0.153574 1.50313 78 85 90
-0.218199 -0.143264 1.50284 74 74 79
-0.242092 -0.241779 1.5006 57 61 66
-0.243639 -0.256245 1.50015 44 45 47
-0.251209 -0.298115 1.49899 115 108 99
-0.219011 -0.175221 1.50174 76 69 65
-0.217217 -0.156699 1.50191 129 125 121
-0.216412 -0.161663 1.5014 153 147 142
-0.213763 -0.141201 1.50079 108 106 104
-0.24814 -0.299825 1.49747 77 70 53
-0.213879 -0.150837 1.49996 166 159 153
-0.241428 -0.273909 1.49724 78 76 74
-0.240709 -0.271132 1.49713 43 46 46
-0.241269 -0.284876 1.49697 106 95 79
-0.213449 -0.164205 1.49943 73 70 68
-0.240799 -0.282067 1.49685 118 111 101
-0.211989 -0.156111 1.49861 67 60 54
-0.209692 -0.142929 1.49861 129 122 117
-0.208464 -0.147326 1.49756 130 120 111
-0.210743 -0.167887 1.49731 164 154 144
-0.2369 -0.283535 1.49462 62 60 59
-0.207245 -0.102709 1.49739 47 49 52
-0.208315 -0.161966 1.49637 75 74 74
-0.20813 -0.165197 1.49622 166 159 156
-0.227387 -0.243562 1.49339 68 73 77
-0.226042 -0.246723 1.49278 120 118 117
-0.201614 -0.105018 1.49434 106 114 112
-0.202541 -0.157938 1.49362 86 84 87
-0.201622 -0.150247 1.49326 150 142 137
-0.200677 -0.166612 1.49235 119 113 113
-0.226851 -0.255189 1.48976 72 68 66
-0.205643 -0.190746 1.49161 133 121 114
-0.202278 -0.184438 1.49081 82 72 65
-0.224687 -0.257479 1.48862 53 56 56
-0.217225 -0.225671 1.48849 104 103 102
-0.194942 -0.163418 1.48961 173 164 149
-0.195574 -0.170147 1.48935 110 98 92
-0.194089 -0.157182 1.48942 136 133 134
-0.22015 -0.261895 1.48663 65 68 70
-0.196366 -0.180684 1.48812 124 115 111
-0.1898 -0.165939 1.48644 119 113 112
-0.214903 -0.25855 1.48377 94 96 96
-0.2096 -0.224104 1.48374 78 79 80
-0.182916 -0.108231 1.48387 119 121 123
-0.182309 -0.101012 1.4834 121 128 126
-0.183103 -0.162227 1.48248 96 89 88
-0.179223 -0.105692 1.48178 105 117 126
-0.175064 -0.0989236 1.47926 53 57 62
-0.174851 -0.148774 1.4772 136 131 129
-0.169328 -0.109646 1.47618 176 172 170
-0.171961 -0.151593 1.47531 87 85 90
-0.167089 -0.100575 1.47471 47 50 53
-0.164957 -0.0982689 1.47351 68 75 80
-0.168528 -0.160688 1.47224 182 178 178
-0.16012 -0.099501 1.47069 113 117 121
-0.159035 -0.104054 1.47021 51 56 61
-0.156652 -0.1085 1.46885 88 91 95
-0.15407 -0.0979945 1.46713 58 62 67
-0.151731 -0.105494 1.46599 59 64 69
-0.148926 -0.0973728 1.46415 27 26 27
-0.26914 -0.123351 1.53846 92 95 102
-0.268782 -0.16842 1.52832 185 181 181
-0.26042 -0.154882 1.52512 148 145 146
-0.244631 -0.121364 1.52443 180 178 178
-0.296008 -0.19607 1.51943 77 75 75
-0.252965 -0.170036 1.51845 152 150 152
-0.246332 -0.102998 1.51832 70 78 83
-0.234233 -0.121192 1.5169 93 98 104
-0.245066 -0.160997 1.51451 87 93 102
-0.259845 -0.122513 1.51329 76 82 87
-0.234198 -0.156803 1.50754 125 125 125
-0.219494 -0.103653 1.49635 47 49 52
-0.215536 -0.106098 1.49314 106 114 112
-0.213951 -0.157348 1.49106 135 131 128
-0.212455 -0.110016 1.49064 41 43 45
-0.202631 -0.109774 1.48207 119 121 123
-0.20246 -0.102561 1.48155 121 128 126
-0.20177 -0.106868 1.48125 138 146 151
-0.194521 -0.146723 1.47183 97 98 101
-0.253293 -0.120938 1.53786 66 71 77
-0.245606 -0.119422 1.53219 69 78 90
-0.254864 -0.15229 1.52494 70 76 84
-0.237662 -0.119954 1.52425 96 102 110
-0.244876 -0.103205 1.51917 69 77 82
-0.230448 -0.121559 1.51478 90 93 98
-0.237366 -0.164857 1.506 108 110 115
-0.237264 -0.161578 1.50592 146 143 141
-0.236858 -0.168644 1.50488 81 83 90
-0.228384 -0.149425 1.49356 122 112 105
-0.228374 -0.107169 1.49203 106 114 112
-0.227813 -0.169229 1.49 119 113 113
-0.224223 -0.113282 1.48556 58 63 68
-0.216617 -0.10442 1.46996 47 50 53
-0.216308 -0.107759 1.46993 95 103 110
-0.212097 -0.112803 1.46294 107 113 118
-0.237176 -0.119879 1.53556 164 163 164
-0.23495 -0.118567 1.53293 69 78 90
-0.260267 -0.167625 1.52891 185 181 181
-0.255108 -0.155219 1.52832 140 138 139
-0.253698 -0.152408 1.52603 123 130 137
-0.230197 -0.119366 1.52479 96 102 110
-0.253269 -0.170098 1.51842 152 150 152
-0.227977 -0.120802 1.51737 93 98 104
-0.248685 -0.16332 1.51486 93 102 110
-0.248028 -0.152889 1.51387 150 150 153
-0.24708 -0.156087 1.51178 62 69 77
-0.245003 -0.160368 1.50931 92 95 99
-0.243505 -0.162131 1.50543 146 143 141
-0.243704 -0.169266 1.50434 81 83 90
-0.243831 -0.168637 1.49319 166 159 156
-0.241925 -0.108316 1.49086 106 114 112
-0.248986 -0.189502 1.48673 82 72 65
-0.241429 -0.114952 1.46834 62 69 78
-0.243523 -0.104648 1.45459 27 26 27
-0.216 -0.118074 1.537 164 163 164
-0.256459 -0.15717 1.53275 63 69 78
-0.214267 -0.116786 1.53437 69 78 90
-0.254005 -0.157375 1.53012 108 105 107
-0.252529 -0.154991 1.5285 140 138 139
-0.251858 -0.152249 1.52616 123 130 137
-0.212771 -0.11864 1.52682 189 187 187
-0.257553 -0.17049 1.51811 152 150 152
-0.352307 -0.256809 1.50846 42 46 51
-0.252539 -0.163675 1.51457 93 102 110
-0.250725 -0.160878 1.50887 92 95 99
-0.25085 -0.157576 1.50806 55 60 67
-0.256041 -0.148307 1.50631 47 50 56
-0.255035 -0.144797 1.50341 130 129 132
-0.252407 -0.14565 1.50031 169 161 152
-0.263207 -0.172902 1.48692 119 113 113
-0.262175 -0.168194 1.48608 105 99 97
-0.603437 -0.150741 1.5105 164 163 164
-0.298521 -0.160853 1.52979 63 69 78
-0.595237 -0.148986 1.50785 69 78 90
-0.304022 -0.161842 1.52656 108 105 107
-0.25998 -0.166224 1.52937 128 119 119
-0.308011 -0.159981 1.52452 140 138 139
-0.304712 -0.156995 1.52232 123 130 137
-0.23608 -0.168399 1.51981 152 150 152
-0.254788 -0.163798 1.51437 93 102 110
-0.215882 -0.144798 1.50952 47 50 56
-0.21534 -0.141323 1.50662 130 129 132
-0.222103 -0.138856 1.50537 146 142 142
-0.225009 -0.141372 1.50361 91 91 94
-0.388008 -0.132665 1.52524 164 163 164
-0.27323 -0.158554 1.5316 63 69 78
-0.386457 -0.131435 1.52239 69 78 90
-0.274427 -0.159088 1.5287 108 105 107
-0.275253 -0.15692 1.5269 140 138 139
-0.273301 -0.15409 1.52462 123 130 137
-0.248413 -0.163388 1.5149 93 102 110
-0.228977 -0.142759 1.50552 130 129 132
-0.231684 -0.139965 1.5046 146 142 142
-0.230002 -0.143942 1.50215 169 161 152
-0.315241 -0.126799 1.5302 164 163 164
-0.2696 -0.15821 1.53186 63 69 78
-0.270147 -0.158685 1.52901 108 105 107
-0.262619 -0.16636 1.52911 128 119 119
-0.270618 -0.156501 1.52724 140 138 139
-0.256729 -0.170261 1.51818 152 150 152
-0.260139 -0.164256 1.51399 93 102 110
-0.727583 -0.14995 1.51384 80 87 94
-0.706659 -0.138255 1.51382 77 83 88
-1.29252 -0.205935 1.47429 70 79 87
-0.679614 -0.158104 1.51122 91 95 101
-0.686742 -0.150179 1.51036 80 84 89
-0.696512 -0.136867 1.50809 59 64 69
-0.705732 -0.147919 1.50196 70 79 87
-0.401022 -0.132599 1.52138 67 76 87
-1.48981 -0.277275 1.44773 64 70 79
-2.10182 -0.324549 1.40561 44 50 58
-1.55114 -0.296508 1.4386 120 112 113
-0.267489 -0.123365 1.52284 180 178 178
-0.643057 -0.133387 1.49717 72 82 90
-2.70674 -0.367631 1.34939 64 73 84
-0.614317 -0.13164 1.49144 70 78 83
-0.194656 -0.117954 1.51991 91 97 103
-129.677 -17.8796 -7.82208 74 83 90
-21043.7 -2810.51 -1517.1 60 69 77
-0.167506 -0.117702 1.51412 87 92 99
-0.579194 -0.128739 1.48338 44 48 52
-28.0923 -4.30713 -0.546127 88 94 100
-0.916236 -0.203266 1.45657 89 98 105
-23.6358 -3.56239 -0.236709 78 87 95
-0.489572 -0.131653 1.48612 19 19 19
-20.8687 -3.24693 -0.0315814 118 115 113
-27.8097 -4.08289 -0.558025 74 84 94
-23.4633 -3.33271 -0.233874 69 78 87
-27.8456 -3.87721 -0.569175 37 39 41
-0.760183 -0.213918 1.46389 151 148 147
-22.9519 -3.61896 -0.206375 137 129 121
-21.3123 -3.08636 -0.0858564 161 160 160
-32.485 -4.44462 -0.931568 34 34 34
-0.182019 -0.117717 1.50676 95 99 104
-102.481 -15.7076 -6.22856 59 56 57
-0.797341 -0.226367 1.45958 82 83 87
-16.0863 -2.25092 0.295662 114 119 122
-23.7649 -3.31103 -0.293133 51 57 61
-88.475 -13.7844 -5.26141 108 110 113
-4.95342 -0.816536 1.13601 102 102 101
-12.3936 -2.09595 0.560219 124 123 123
-9.72728 -1.5768 0.764983 90 98 105
-11.373 -1.90788 0.636665 23 25 27
-1.01246 -0.267828 1.43794 120 106 100
-35.2814 -5.68538 -1.2198 156 145 117
-8.83836 -1.44915 0.828104 112 118 125
-9.38107 -1.40948 0.784654 157 148 137
-4.64847 -0.775268 1.15264 191 183 175
-9.22809 -1.46887 0.795619 54 61 70
-30.334 -4.92379 -0.849218 135 121 94
-0.725585 -0.200274 1.45718 168 161 155
-10.2463 -1.76033 0.71051 26 27 28
-7.67081 -1.25695 0.90941 177 165 154
-8.4845 -1.42689 0.845497 114 117 119
-8.87734 -1.43027 0.814265 121 119 118
-30.2961 -4.96635 -0.885492 158 150 134
-9.85541 -1.70909 0.732111 118 115 112
-6.54749 -1.09277 0.992191 161 156 154
-4.50126 -0.759725 1.15382 185 174 166
-9.89112 -1.67481 0.725612 70 66 62
-7.74253 -1.32502 0.895222 131 126 120
-11.3559 -1.84724 0.605337 161 154 147
-0.452105 -0.161607 1.47452 189 181 173
-6.88311 -1.14559 0.960202 185 173 160
-0.352845 -0.144229 1.48185 115 105 97
-9.40095 -1.63289 0.756875 43 48 49
-0.578253 -0.180248 1.46377 189 180 171
-5.49482 -0.93107 1.06942 38 38 37
-2.21123 -0.446344 1.33222 180 173 169
-34.9106 -5.53065 -1.30935 161 147 128
-1.12172 -0.282509 1.41817 100 92 89
-6.95449 -1.1842 0.946371 45 47 49
-26.8093 -4.42549 -0.660997 32 36 35
-9.41453 -1.59944 0.745391 163 151 133
-0.538047 -0.169683 1.46424 94 85 79
-5.48987 -0.92337 1.06063 171 161 154
-23.8188 -3.99034 -0.430967 194 183 161
-0.725605 -0.210255 1.44832 86 84 86
-0.704106 -0.199565 1.44992 149 140 134
-7.26207 -1.24114 0.91458 125 115 107
-7.79148 -1.33879 0.870835 62 64 64
-0.464869 -0.153906 1.46835 60 58 57
-5.42413 -0.92833 1.06216 146 139 135
-21.8816 -3.61365 -0.287161 201 202 201
-6.51269 -1.09695 0.971362 146 136 128
-0.706385 -0.213628 1.44715 106 100 98
-9.65097 -1.64418 0.708932 77 75 73
-0.650836 -0.186528 1.451 149 144 144
-0.55855 -0.16463 1.45824 129 123 121
-0.535442 -0.137194 1.45954 61 65 67
-26.287 -4.35435 -0.675649 72 67 56
-1.30544 -0.315685 1.39556 129 120 118
-0.655262 -0.18045 1.44914 67 71 76
-1.11335 -0.285707 1.41083 83 73 66
-5.80412 -1.00906 1.01762 40 45 50
-5.21483 -0.884291 1.06553 27 28 28
-0.776971 -0.231695 1.43644 105 99 98
-4.2926 -0.733694 1.13977 172 164 158
-0.666962 -0.204034 1.44463 49 51 54
-23.5631 -3.88263 -0.489404 176 164 147
-0.745766 -0.206283 1.43744 54 56 60
-24.5441 -4.08642 -0.574295 27 28 29
-4.78408 -0.832233 1.09517 121 120 117
-10.7168 -1.86533 0.591465 157 148 139
-8.76718 -1.49283 0.756028 101 97 97
-7.05466 -1.19383 0.900755 192 183 176
-10.3997 -1.76299 0.613407 148 138 129
-9.52143 -1.55941 0.686967 59 58 55
-6.20392 -1.0513 0.969013 15 15 15
-9.29487 -1.52979 0.699817 125 117 114
-5.08993 -0.860147 1.06007 169 159 151
-4.47462 -0.764014 1.11284 113 109 105
-0.530923 -0.13273 1.45106 138 146 153
-8.63537 -1.46253 0.750559 127 118 102
-11.323 -1.95601 0.518589 52 51 49
-4.56941 -0.785845 1.10104 78 74 74
-8.80637 -1.45994 0.734392 55 59 59
-0.737608 -0.215809 1.43168 70 66 65
-9.48639 -1.61976 0.672066 175 165 155
-35.0815 -5.73035 -1.55327 137 126 103
-1.09476 -0.202659 1.3998 62 64 63
-8.0313 -1.35344 0.796175 118 115 114
-5.02868 -0.830939 1.05611 135 124 116
-6.17095 -1.02821 0.955396 43 45 47
-4.46941 -0.754356 1.10334 166 154 146
-0.809548 -0.197134 1.42288 80 86 90
-0.81471 -0.201856 1.42243 52 53 54
-0.960627 -0.256199 1.40944 103 97 98
-10.7078 -1.82144 0.552185 186 176 166
-6.58289 -1.09693 0.913718 151 138 130
-8.08896 -1.39181 0.780618 162 157 152
-13.2591 -2.26244 0.324809 170 160 151
-8.18756 -1.35188 0.770529 41 42 43
-1.44545 -0.22352 1.36475 9 9 9
-0.824529 -0.212046 1.41885 134 133 135
-0.542485 -0.131706 1.44354 41 45 50
-5.07101 -0.827131 1.03856 32 32 32
-12.4962 -2.12412 0.377352 13 14 15
-7.71319 -1.23615 0.801758 32 32 33
-0.921347 -0.237407 1.40767 60 57 55
-1.19209 -0.282495 1.38334 106 97 98
-8.79356 -1.45301 0.703994 31 33 35
-10.5273 -1.75877 0.548632 147 134 121
-7.72081 -1.24881 0.79914 124 115 109
-8.43845 -1.29225 0.733467 34 36 38
-188.735 -29.671 -15.4626 131 120 104
-0.831308 -0.204797 1.4127 33 34 35
-0.54521 -0.133356 1.43842 90 98 105
-0.861095 -0.219802 1.40959 86 85 88
-9.99086 -1.64077 0.581481 129 122 118
-1.07798 -0.215084 1.38864 21 20 19
-0.556365 -0.127911 1.4358 69 75 80
-6.49369 -1.01829 0.894431 178 168 161
-12.0631 -1.83895 0.382789 66 60 59
-1.34935 -0.229258 1.36146 64 70 73
-15.8661 -2.58615 0.0255632 95 91 87
-1.04695 -0.251222 1.38721 181 177 177
-16.6 -2.73146 -0.0503295 89 86 85
-0.559413 -0.128389 1.43099 77 86 93
-0.942934 -0.231906 1.39496 152 149 148
-12.52 -2.03249 0.320387 69 63 61
-7.54173 -1.12117 0.78152 149 143 139
-0.949924 -0.225249 1.39326 52 55 58
-13.241 -2.10072 0.243932 23 24 23
-0.571828 -0.130168 1.42579 62 67 72
-1.15305 -0.258868 1.36962 80 76 76
-101.136 -15.1491 -8.08159 18 19 20
-1.09382 -0.237791 1.37453 88 88 90
-36.8535 -5.59551 -2.01647 69 63 61
-28.2505 -4.24612 -1.20519 26 25 25
-1.21241 -0.243578 1.36088 36 37 38
-0.580795 -0.139196 1.41819 98 103 108
-1.45403 -0.283056 1.33271 130 126 124
-1.6074 -0.285623 1.3159 151 145 142
-5.87572 -0.627159 0.886117 185 183 183
-1.92674 -0.313345 1.27678 52 48 47
-0.159603 -0.0983576 1.5163 36 39 45
-0.351033 -0.18548 1.50169 125 122 125
-0.859178 -0.35974 1.45806 60 59 58
-0.824468 -0.362845 1.45952 137 129 121
-0.882463 -0.382716 1.45413 59 56 57
-0.00240898 -0.153397 1.5197 138 129 126
-0.116917 -0.227245 1.50402 164 159 155
-0.00452307 -0.199878 1.51201 41 40 39
-0.0270414 -0.218662 1.5089 185 173 160
0.0374369 -0.216882 1.51213 45 47 49
0.512436 -0.0455243 1.54974 54 56 57
0.0410695 -0.226129 1.51156 111 107 104
0.0861738 -0.20705 1.51502 80 75 73
0.137087 -0.18732 1.51905 171 161 154
0.0247731 -0.253329 1.50743 13 16 16
0.178401 -0.199479 1.51962 41 41 40
0.605878 -0.0445647 1.55416 109 116 115
0.10723 -0.2442 1.51215 159 159 156
0.204128 -0.209795 1.51994 160 148 137
0.306517 -0.171755 1.5284 70 75 79
0.185042 -0.232102 1.51667 27 28 29
0.231266 -0.221898 1.51936 14 15 13
0.306788 -0.195077 1.52572 148 138 129
0.310512 -0.204278 1.52531 131 115 90
0.669531 -0.0586574 1.55567 53 55 57
0.660608 -0.0737226 1.55494 139 137 138
0.706263 -0.0706732 1.55703 88 82 80
0.410564 -0.187388 1.53113 164 156 145
0.563033 -0.124417 1.54321 45 47 50
0.547915 -0.14428 1.54051 93 99 98
0.801111 -0.0596922 1.5616 143 137 136
0.814137 -0.0521476 1.56272 138 133 131
0.593252 -0.138775 1.54295 98 95 93
0.88536 -0.0172566 1.56822 60 66 71
0.591448 -0.151779 1.54177 65 69 69
0.844053 -0.0510334 1.56409 86 85 88
0.951983 -0.0130115 1.57147 113 118 121
0.977954 -0.0102584 1.57278 61 67 72
-0.308541 -0.119538 1.53356 80 84 89
-0.277188 -0.105168 1.52571 75 88 99
-0.231387 -0.172961 1.51039 125 122 125
-0.19376 -0.118737 1.5077 109 110 110
-0.20625 -0.158354 1.50567 151 148 147
-0.261098 -0.270071 1.50094 72 77 82
-0.203609 -0.165115 1.50466 82 83 87
-0.182573 -0.14764 1.49986 168 161 155
-0.183613 -0.166402 1.49926 166 160 156
-0.174517 -0.161606 1.49707 150 144 140
-0.215211 -0.249031 1.49345 119 115 110
-0.208904 -0.236836 1.49327 53 57 60
-0.20918 -0.261782 1.49121 111 107 104
-0.205855 -0.246941 1.49125 80 75 73
-0.201277 -0.231468 1.49149 171 161 154
-0.160049 -0.146046 1.49417 149 142 139
-0.201623 -0.255402 1.48984 91 83 79
-0.158219 -0.162012 1.49307 120 114 114
-0.212567 -0.295497 1.48774 197 193 188
-0.202753 -0.278511 1.48835 105 93 76
-0.191048 -0.233641 1.48885 48 51 54
-0.161452 -0.185507 1.4907 129 120 118
-0.157151 -0.179213 1.49056 83 73 66
-0.148394 -0.158453 1.49094 174 164 149
-0.183408 -0.237328 1.48736 70 75 79
-0.197497 -0.291482 1.48434 27 28 29
-0.185113 -0.258316 1.4848 76 77 79
-0.174678 -0.229796 1.48542 145 140 135
-0.184559 -0.266815 1.48386 148 138 129
-0.167434 -0.223398 1.48344 169 159 151
-0.125838 -0.1534 1.48486 70 66 65
-0.17075 -0.26379 1.48076 140 126 100
-0.1653 -0.253911 1.48019 66 69 71
-0.170402 -0.278364 1.47922 189 178 167
-0.162485 -0.246145 1.47963 116 113 111
-0.154049 -0.21503 1.48023 45 47 50
-0.155628 -0.250095 1.47781 96 97 97
-0.112668 -0.132206 1.48104 107 113 110
-0.109796 -0.150926 1.47968 96 91 91
-0.0989521 -0.137506 1.47742 102 101 103
-0.225551 -0.177408 1.50272 138 129 126
-0.220427 -0.181399 1.49938 120 106 100
-0.229993 -0.239478 1.48793 146 139 135
-0.192346 -0.109548 1.48807 61 65 67
-0.216866 -0.235346 1.48184 145 140 135
-0.232147 -0.296308 1.48059 106 100 90
-0.179896 -0.141738 1.47815 52 53 54
-0.279099 -0.275913 1.5015 60 59 58
-0.254092 -0.254014 1.49036 119 115 110
-0.219452 -0.165973 1.49243 163 156 153
-0.212585 -0.162948 1.48794 106 100 98
-0.216332 -0.18562 1.48564 83 73 66
-0.210587 -0.171326 1.48524 104 92 87
-0.231956 -0.260869 1.47104 96 97 97
-0.192846 -0.111317 1.47213 177 173 171
-0.191568 -0.102188 1.47046 42 44 47
-0.185906 -0.105864 1.46562 45 49 55
-0.237652 -0.147512 1.50134 75 82 90
-0.233619 -0.140289 1.49907 77 80 86
-0.238403 -0.183093 1.49801 120 106 100
-0.231522 -0.167134 1.49147 163 156 153
-0.22905 -0.159198 1.48907 93 92 93
-0.232209 -0.187385 1.48432 83 73 66
-0.222151 -0.104014 1.47803 120 126 125
-0.220029 -0.112726 1.47545 60 65 71
-0.259763 -0.264495 1.47221 121 121 122
-0.252179 -0.228975 1.47035 77 76 77
-0.243195 -0.144642 1.4981 154 148 143
-0.244293 -0.160719 1.48783 93 92 93
-0.457041 -0.133385 1.52837 77 83 88
-0.265513 -0.163814 1.4859 86 84 86
-0.267345 -0.173104 1.48412 120 114 114
-0.614094 -0.151783 1.51059 159 159 161
-0.610088 -0.150332 1.50801 67 76 87
-0.00967297 -0.0854205 1.55544 77 83 88
-2.96166 -0.332157 1.35781 44 50 57
-3.54894 -0.358918 1.31199 78 92 103
-2.92169 -0.409073 1.34224 116 122 130
-4.93518 -0.523893 1.16542 87 92 100
-3.92754 -0.391749 1.24318 35 38 43
-2.92735 -0.445266 1.32566 151 149 151
-3.30214 -0.447721 1.29037 151 152 155
-4.82618 -0.532711 1.13386 110 107 107
-3.72119 -0.503954 1.22716 123 120 116
-4.62558 -0.532612 1.14499 136 129 130
-3.69911 -0.51546 1.22798 66 67 67
-3.47326 -0.520014 1.24516 181 169 160
-3.75499 -0.493851 1.21903 170 163 158
-4.54037 -0.520302 1.14031 96 86 82
-4.32921 -0.429699 1.15812 106 113 111
-4.25068 -0.51262 1.16204 86 78 73
-3.78522 -0.511766 1.2052 160 151 146
-3.70532 -0.52132 1.21172 78 79 80
-4.45312 -0.509011 1.14096 58 55 54
-3.94282 -0.548607 1.17403 171 162 147
-4.55227 -0.438816 1.10442 118 125 124
-2.71622 -0.495374 1.28253 115 107 107
-3.24961 -0.530355 1.22943 134 122 110
-3.87982 -0.480539 1.16518 48 49 49
-1.50279 -0.431053 1.39559 44 47 51
-1.402 -0.453621 1.405 129 127 124
-1.45423 -0.439918 1.39918 89 85 83
-1.53625 -0.438179 1.39103 113 120 127
-3.90301 -0.552496 1.15562 99 90 88
-1.59544 -0.434752 1.38183 151 139 127
-3.96165 -0.490352 1.14626 80 87 92
-1.88342 -0.447471 1.35238 131 124 121
-3.56769 -0.417328 1.18423 61 64 63
-4.68142 -0.469957 1.07215 65 72 79
-1.60395 -0.443685 1.37932 45 46 48
-1.45268 -0.458832 1.39335 132 127 122
-3.96714 -0.518525 1.14025 135 134 136
-1.53454 -0.450863 1.38345 112 108 105
-1.4628 -0.44794 1.39013 166 154 139
-1.76969 -0.442639 1.35795 50 53 55
-1.81202 -0.455298 1.35205 48 51 53
-3.80456 -0.533132 1.14968 46 43 43
-4.76797 -0.478767 1.04787 79 87 96
-4.02866 -0.508245 1.12343 33 34 36
-1.18805 -0.444107 1.41288 32 36 36
-3.55462 -0.525664 1.16973 107 98 94
-1.87482 -0.451342 1.34172 125 123 121
-1.43867 -0.463944 1.38612 103 90 71
-1.44517 -0.454101 1.38479 138 126 114
-3.50103 -0.515002 1.16806 167 160 158
-1.63387 -0.446581 1.36131 189 176 166
-1.54059 -0.448784 1.37025 55 60 65
-4.85952 -0.483281 1.02247 59 64 70
-3.90766 -0.532052 1.12189 106 100 101
-4.87686 -0.460819 1.02029 64 70 75
-3.4538 -0.414388 1.16849 64 69 73
-3.73386 -0.527669 1.1392 181 178 177
-1.91818 -0.44152 1.32871 32 34 35
-1.2182 -0.450693 1.40138 160 157 147
-1.51944 -0.438922 1.36969 61 60 58
-3.92943 -0.516622 1.1155 49 51 54
-1.75026 -0.436094 1.344 15 16 17
-1.42513 -0.467449 1.37675 131 115 92
-1.76142 -0.444938 1.34063 125 119 114
-1.59992 -0.458524 1.35471 68 71 73
-3.79993 -0.513815 1.11965 111 111 113
-4.93512 -0.488103 0.99713 60 65 70
-1.53498 -0.463185 1.35956 131 120 110
-1.35736 -0.461889 1.37594 179 167 153
-1.45068 -0.456591 1.36583 151 138 124
-1.20363 -0.449164 1.39117 135 124 101
-1.65456 -0.435865 1.34198 139 130 124
-1.8589 -0.424565 1.31971 25 24 24
-1.79639 -0.41667 1.32251 16 16 16
-1.16012 -0.442906 1.38914 175 170 164
-1.53836 -0.420904 1.34568 129 121 118
-1.5179 -0.448237 1.34709 45 47 49
-1.47115 -0.415106 1.34912 36 38 41
-1.1001 -0.434437 1.39003 198 193 189
-1.40765 -0.452137 1.35512 98 93 90
-1.48321 -0.440294 1.34264 20 21 21
-1.57973 -0.37347 1.33142 28 28 30
-1.10637 -0.428798 1.38383 54 50 46
-1.37645 -0.406507 1.35247 19 20 24
-1.34509 -0.450163 1.35591 16 17 18
-1.28944 -0.427172 1.35591 69 63 60
-1.24121 -0.31841 1.35699 73 80 86
-1.10166 -0.408007 1.36965 103 96 94
-1.15998 -0.280694 1.35926 81 85 91
-1.07186 -0.367498 1.36629 93 89 85
-1.10751 -0.28805 1.36109 20 22 26
-5.23839 -0.488316 1.20343 67 74 79
-5.26026 -0.492858 1.19942 84 95 104
-5.31539 -0.494289 1.19229 53 57 60
-5.7091 -0.523755 1.14039 63 71 77
-10.2775 -0.961028 0.77642 69 78 88
-11.3042 -1.05394 0.675129 96 101 107
-3.73233 -0.486646 1.27644 116 122 130
-6.30387 -0.56979 1.06473 69 75 80
-6.47195 -0.582131 1.04272 51 55 60
-4.66892 -0.579294 1.17418 151 152 155
-4.81989 -0.603299 1.15641 59 66 73
-5.4444 -0.669837 1.09157 121 121 123
-5.49917 -0.689093 1.0829 152 150 149
-5.40513 -0.689677 1.09072 107 109 113
-11.1897 -1.08923 0.568472 110 107 107
-11.4382 -1.09841 0.54616 134 130 130
-5.82263 -0.679979 1.04356 165 158 153
-10.5739 -1.03317 0.609346 90 84 84
-5.82012 -0.728022 1.03668 156 150 145
-10.5511 -1.03513 0.608019 65 62 61
-5.06611 -0.689086 1.10113 181 169 160
-5.94386 -0.705464 1.02087 170 163 158
-5.67078 -0.722111 1.04189 69 66 64
-7.81427 -0.682822 0.844914 52 56 59
-7.97344 -0.714905 0.823223 106 113 111
-6.83723 -0.782077 0.926989 136 125 115
-5.32128 -0.69868 1.06392 172 162 152
-8.09632 -0.741763 0.800915 39 41 43
-6.16714 -0.75184 0.977737 87 87 89
-6.2968 -0.745876 0.965092 50 47 46
-6.38439 -0.750142 0.956631 146 139 136
-6.11954 -0.753556 0.98104 148 144 142
-5.95396 -0.763666 0.990653 123 116 115
-6.9502 -0.769183 0.896149 54 54 57
-6.89602 -0.75623 0.897196 70 74 79
-6.66404 -0.755164 0.918628 92 86 84
-8.36138 -0.72546 0.753494 70 76 79
-6.62087 -0.74551 0.919364 128 122 119
-6.42661 -0.803502 0.937831 171 162 147
-6.7469 -0.815122 0.907268 116 110 110
-5.91143 -0.77299 0.98276 106 94 88
-6.25618 -0.747367 0.943198 63 65 67
-8.62811 -0.792575 0.713403 46 50 55
-6.33176 -0.804642 0.933398 120 115 113
-8.60346 -0.7514 0.712138 118 125 124
-8.72653 -0.780664 0.699227 139 147 153
-2.99393 -0.529723 1.25518 120 115 115
-4.26317 -0.644192 1.13109 134 122 110
-8.66316 -0.748471 0.702829 66 72 76
-4.8795 -0.695104 1.0708 125 112 106
-5.79374 -0.770108 0.979613 186 182 179
-0.840758 -0.370214 1.46004 129 127 124
-6.51351 -0.802552 0.900983 68 64 63
-6.25579 -0.792541 0.923992 162 153 147
-0.860449 -0.372142 1.45568 118 116 115
-8.95502 -0.790484 0.652163 41 44 48
-6.17999 -0.782336 0.927287 168 159 151
-1.08916 -0.366065 1.43204 151 139 127
-6.22213 -0.712421 0.921757 57 59 61
-0.514425 -0.334951 1.48906 134 121 94
-6.29346 -0.779566 0.913672 71 68 67
-4.94737 -0.536856 1.04691 61 64 63
-4.03194 -0.622344 1.13799 136 123 112
-9.09467 -0.824117 0.632113 65 72 79
-1.10142 -0.374479 1.42938 45 46 48
-0.89411 -0.375021 1.44981 41 45 45
-9.06885 -0.831684 0.629906 171 168 166
-1.49449 -0.39604 1.38866 32 32 33
-6.21195 -0.737027 0.9153 135 134 136
-0.903067 -0.377173 1.44682 29 29 29
-6.12527 -0.756921 0.921397 59 59 61
-1.11831 -0.374962 1.42486 47 48 48
-6.20864 -0.702658 0.911145 102 108 104
-9.11665 -0.792617 0.617408 43 45 48
-6.21683 -0.735669 0.908946 120 116 115
-6.11206 -0.689485 0.918202 88 92 88
-0.89905 -0.378651 1.44518 115 106 90
-5.89025 -0.735731 0.939935 44 43 44
-6.23175 -0.73929 0.905081 138 134 131
-6.03304 -0.679682 0.924405 36 34 30
-9.15606 -0.785268 0.606973 66 71 77
-1.35382 -0.387471 1.39795 45 47 47
-9.27242 -0.845829 0.589857 92 93 98
-1.42578 -0.40594 1.3893 83 84 85
-6.33611 -0.726854 0.888246 33 34 36
-0.553543 -0.345733 1.47756 32 36 36
-6.09335 -0.736717 0.910623 86 84 88
-9.26986 -0.800997 0.580179 112 116 118
-9.2953 -0.80719 0.576988 35 36 37
-0.892119 -0.380046 1.44071 123 116 110
-1.58041 -0.399759 1.36823 109 108 106
-4.09047 -0.447126 1.10626 57 61 65
-1.58357 -0.394322 1.3654 161 149 136
-5.32918 -0.691401 0.972759 181 178 177
-1.52044 -0.390929 1.3702 32 34 35
-5.88 -0.725895 0.913511 153 149 148
-0.575579 -0.3518 1.4683 118 108 89
-5.88438 -0.707452 0.910479 49 51 54
-1.28691 -0.380603 1.3908 44 45 47
-9.5021 -0.810955 0.519826 29 29 30
-5.43472 -0.688999 0.948972 83 77 76
-0.864718 -0.380139 1.43358 44 43 43
-1.06459 -0.382388 1.41157 68 71 73
-1.08313 -0.374848 1.40875 118 116 114
-1.07088 -0.385357 1.40988 60 62 66
-9.64977 -0.864049 0.494165 60 65 70
-5.07858 -0.658577 0.981181 84 79 78
-1.07613 -0.367777 1.4066 90 95 94
-1.04876 -0.353988 1.40409 133 125 118
-0.893357 -0.363545 1.4113 72 66 62
-2.83392 -0.304783 1.38609 63 69 75
-2.03223 -0.243248 1.43198 65 74 79
-0.0267905 -0.0890944 1.54634 70 76 79
0.0109543 -0.121341 1.54467 48 49 49
0.048509 -0.137193 1.54654 68 64 63
-0.499468 -0.316772 1.48914 41 45 45
-0.314736 -0.253779 1.50645 125 121 120
-0.397661 -0.288908 1.49753 112 108 105
0.222876 -0.113981 1.55617 86 84 88
-0.319618 -0.296304 1.50056 103 90 71
-0.0645812 -0.211123 1.52395 171 162 155
0.246875 -0.0830115 1.55583 57 61 65
-0.168127 -0.259421 1.5122 107 100 97
-0.213883 -0.294708 1.50401 25 27 27
-0.00948273 -0.23346 1.52345 119 119 119
0.0115585 -0.22284 1.5253 118 116 114
-0.150795 -0.283065 1.50743 14 16 15
0.058904 -0.220723 1.52821 94 96 98
-0.188915 -0.139478 1.52364 108 116 115
-0.246013 -0.25632 1.51457 45 46 48
-0.169499 -0.152452 1.51851 132 127 127
-0.159036 -0.144733 1.51624 103 102 103
-0.232583 -0.281622 1.50843 123 116 110
-0.252459 -0.257208 1.51392 45 46 48
-0.254594 -0.281282 1.51188 29 29 29
-0.221255 -0.226303 1.50247 79 79 80
-0.228772 -0.263582 1.50035 68 71 73
-0.222147 -0.258337 1.4968 77 81 83
-0.249328 -0.107724 1.55224 35 38 44
-0.236569 -0.160636 1.53948 44 44 45
-0.216681 -0.142066 1.52092 108 116 115
-0.267881 -0.2849 1.51513 56 60 63
-0.25889 -0.258096 1.51328 45 46 48
-0.206401 -0.156216 1.5123 86 84 88
-0.191149 -0.101402 1.50523 29 29 30
-0.242447 -0.266432 1.49872 119 119 119
-0.24796 -0.229698 1.49966 79 79 80
-0.202968 -0.1023 1.50398 29 29 30
