ply
format ascii 1.0
element vertex 1234
property float x
property float y
property float z
property uchar red
property uchar green
property uchar blue
end_header
-0.0554272 -0.0272475 1.82996 119 106 85
-0.0644476 0.0272297 1.82242 43 34 20
-0.0650844 0.0448861 1.82008 53 47 33
-0.0653512 0.0361172 1.81926 110 102 81
-0.0570664 0.0679531 1.8218 41 43 42
-0.0623032 0.0341083 1.8162 127 116 94
-0.060707 0.0467907 1.81511 33 29 21
-0.0598898 0.0186431 1.81441 97 82 59
-0.0596646 0.0316888 1.81396 82 76 58
-0.0587181 0.0380104 1.81297 140 120 80
-0.055795 0.0566187 1.81471 21 20 18
-0.054665 0.0610962 1.81457 47 48 42
-0.045483 -0.0184182 1.8205 134 120 97
-0.0543459 0.0507642 1.80937 72 74 66
-0.0542099 0.0345538 1.80808 125 115 96
-0.0530941 0.0467536 1.80767 45 45 37
-0.0512003 0.0319365 1.80552 154 141 117
-0.0506229 0.0365603 1.80388 104 91 66
-0.0509256 0.0492545 1.8034 95 85 66
-0.04873 0.045068 1.80208 42 36 25
-0.155911 0.00481854 1.9729 56 44 28
-0.179 0.04351 1.95115 64 52 39
-0.161698 -0.0926542 1.96303 130 120 102
-0.180761 0.0487263 1.94588 136 125 103
-0.152686 0.0102177 1.96999 52 41 29
-0.149733 -0.0805308 1.97179 26 23 18
-0.179648 0.039402 1.94555 150 132 110
-0.152765 -0.00762218 1.96815 73 64 52
-0.178908 0.0288167 1.94538 177 157 129
-0.151302 0.00533512 1.96765 91 81 65
-0.181181 0.0450852 1.94118 22 19 14
-0.17944 0.0340464 1.94254 78 63 49
-0.179237 0.0296301 1.9409 156 130 100
-0.158238 -0.0948558 1.95788 45 38 24
-0.180226 0.0410619 1.93834 28 24 18
-0.179722 0.0344978 1.93779 157 141 119
-0.148664 -0.00674587 1.96345 32 25 13
-0.159278 -0.0896038 1.95383 90 85 68
-0.158905 -0.0853855 1.95381 39 33 22
-0.180125 0.0448647 1.93537 141 126 102
-0.146788 -0.00323165 1.96251 99 91 71
-0.178706 0.0369794 1.93293 41 36 25
-0.178148 0.0527762 1.93274 87 79 62
-0.177024 0.0269187 1.93339 171 141 100
-0.178442 0.0484615 1.93184 95 79 58
-0.177907 0.0323483 1.93214 54 47 36
-0.145754 -0.00713014 1.95661 104 98 80
-0.17736 0.0446488 1.93009 43 35 24
-0.170663 0.0143396 1.93361 142 122 98
-0.175551 0.0492369 1.92852 36 26 18
-0.175043 0.0372629 1.92853 64 62 52
-0.174914 0.0330109 1.92753 135 118 90
-0.167947 0.00678633 1.93201 168 141 113
-0.144696 -0.00836643 1.951 64 58 44
-0.173146 0.0291248 1.92628 172 155 128
-0.146009 -0.0950996 1.94811 99 99 85
-0.173495 0.0523555 1.92594 80 74 57
-0.173094 0.0429556 1.92547 57 49 37
-0.140821 -0.014734 1.95097 61 55 43
-0.172267 0.0378407 1.92451 65 60 47
-0.171628 0.0477452 1.92328 116 107 88
-0.143015 -0.0098797 1.94525 69 63 48
-0.132534 -0.0752283 1.95338 107 104 86
-0.170284 0.0434761 1.92244 138 124 104
-0.131526 -0.0664597 1.95286 82 78 65
-0.13078 -0.060012 1.95297 83 78 61
-0.169038 0.0287939 1.92203 74 70 57
-0.168084 0.0367411 1.92094 144 128 102
-0.128054 -0.055989 1.9526 74 70 60
-0.166959 0.0499221 1.92022 22 19 13
-0.16677 0.0454002 1.91934 120 105 81
-0.164137 0.0150428 1.92128 142 126 101
-0.141018 -0.011152 1.93893 93 87 71
-0.128624 -0.0652771 1.94783 110 114 102
-0.135998 -0.113783 1.94098 133 124 106
-0.136854 -0.0208264 1.94004 152 138 119
-0.134164 -0.0857411 1.94154 40 35 24
-0.164824 0.0358916 1.91739 133 119 96
-0.123867 -0.0699485 1.94984 115 116 107
-0.126002 -0.0510161 1.9477 67 65 57
-0.164144 0.0298822 1.91731 86 78 58
-0.140338 -0.0140611 1.93536 156 141 120
-0.125624 -0.0574214 1.94651 99 101 92
-0.163377 0.0483202 1.91635 43 37 27
-0.163965 0.0409649 1.91548 68 61 46
-0.134508 -0.113091 1.93714 150 141 120
-0.125207 -0.0745098 1.94368 86 83 70
-0.162037 0.0338906 1.91446 63 57 45
-0.156487 0.0614932 1.91868 74 77 78
-0.138932 -0.0114594 1.93176 88 80 65
-0.126197 -0.0607236 1.94099 96 96 82
-0.132955 -0.119665 1.93519 173 161 139
-0.160709 0.0438342 1.91383 110 100 79
-0.134673 -0.022983 1.93311 103 93 78
-0.159628 0.0280235 1.91348 171 155 124
-0.129708 -0.0838187 1.93646 76 71 53
-0.131464 -0.123713 1.93399 164 149 126
-0.159437 0.039767 1.91191 142 129 102
-0.123946 -0.0569387 1.93935 80 79 66
-0.131284 -0.113823 1.93285 70 67 51
-0.137331 -0.015567 1.92856 121 110 92
-0.158552 0.0341043 1.91164 66 58 40
-0.126019 -0.063435 1.93659 96 97 88
-0.132239 -0.120707 1.93095 121 116 98
-0.136242 -0.019537 1.92784 125 111 91
-0.157647 0.046119 1.9108 102 96 79
-0.132788 -0.0255218 1.92963 143 134 120
-0.130201 -0.109542 1.93081 115 118 102
-0.126925 -0.0825226 1.93277 104 102 86
-0.122667 -0.0752285 1.93572 99 99 87
-0.123062 -0.0577337 1.93477 86 83 69
-0.156085 0.0380374 1.90925 148 131 101
-0.133924 -0.0236986 1.92529 202 193 177
-0.124129 -0.0644378 1.93224 104 109 102
-0.12926 -0.122309 1.9276 198 188 168
-0.148194 0.00647605 1.91266 206 194 172
-0.147643 0.00215673 1.91304 177 164 144
-0.154031 0.0440611 1.90684 156 143 117
-0.153426 0.0352325 1.90723 80 74 56
-0.122653 -0.0591551 1.93 34 31 24
-0.125846 -0.0379731 1.92758 95 99 90
-0.121183 -0.0773796 1.93032 94 94 82
-0.125966 -0.11041 1.92626 79 75 59
-0.130826 -0.0275642 1.92285 202 192 171
-0.152927 0.0488952 1.90608 122 108 86
-0.12307 -0.0649967 1.9273 105 106 94
-0.132233 -0.0210986 1.92038 53 49 38
-0.124087 -0.130253 1.9258 44 40 30
-0.125016 -0.120695 1.92415 156 149 132
-0.123696 -0.0427255 1.92517 84 83 76
-0.120492 -0.0573715 1.92644 50 44 33
-0.14939 0.0300318 1.90419 117 97 66
-0.149997 0.0369327 1.90358 57 49 31
-0.130401 -0.0265716 1.91811 127 116 100
-0.123225 -0.125988 1.92296 75 73 60
-0.141907 0.00119809 1.90785 184 170 148
-0.121151 -0.0638472 1.92319 91 88 75
-0.119061 -0.0805218 1.92406 48 43 30
-0.122398 -0.132287 1.92103 158 143 118
-0.121424 -0.0976196 1.92165 38 34 26
-0.121304 -0.104979 1.92099 41 37 25
-0.127576 -0.0290449 1.91631 198 188 170
-0.120472 -0.0898601 1.92139 41 36 25
-0.12083 -0.121816 1.92063 84 82 68
-0.118765 -0.0589577 1.92205 41 37 27
-0.120414 -0.111424 1.92034 81 77 62
-0.125379 -0.0332273 1.9158 80 75 63
-0.145835 0.0344968 1.90054 154 133 101
-0.119662 -0.135375 1.91825 144 124 99
-0.145319 0.0504614 1.89936 42 37 24
-0.118329 -0.0645661 1.91904 118 125 116
-0.118096 -0.0997909 1.91758 77 76 64
-0.124991 -0.0282908 1.91245 87 86 77
-0.117045 -0.0695019 1.91717 129 126 113
-0.1163 -0.0605451 1.91769 63 58 45
-0.13859 0.0231559 1.90036 55 45 27
-0.141961 0.0301463 1.89772 60 53 37
-0.122045 -0.0360952 1.91219 86 86 76
-0.139669 0.0147103 1.89903 64 54 36
-0.142563 0.0443864 1.89682 53 50 41
-0.11525 -0.120682 1.91617 154 142 121
-0.135303 0.00532056 1.9014 79 74 59
-0.115205 -0.113567 1.91573 83 78 60
-0.11508 -0.0655942 1.91559 108 111 102
-0.1412 0.0551135 1.89602 68 66 53
-0.141323 0.0373745 1.89561 125 108 79
-0.119302 -0.0397474 1.91157 203 193 174
-0.122304 -0.0285528 1.90904 57 54 44
-0.139963 0.0411821 1.89444 153 138 105
-0.11986 -0.0332737 1.90876 181 171 151
-0.135894 0.0168233 1.8965 55 48 32
-0.111594 -0.0645241 1.91213 116 120 110
-0.112013 -0.0686525 1.91151 139 136 122
-0.137261 0.029964 1.8933 184 165 131
-0.138044 0.0509778 1.89278 112 105 88
-0.137607 0.0360013 1.89268 96 82 57
-0.109876 -0.100534 1.91168 45 37 22
-0.137067 0.0431083 1.89158 156 138 106
-0.116392 -0.0338749 1.90546 104 95 81
-0.113884 -0.0438014 1.90714 201 193 177
-0.135295 0.0396792 1.89014 61 51 31
-0.133864 0.0481675 1.88992 54 49 35
-0.127623 0.00599214 1.89362 196 186 161
-0.108275 -0.119684 1.90687 91 86 70
-0.102228 -0.139809 1.91101 193 182 162
-0.130101 0.0147431 1.89142 162 145 113
-0.113722 -0.0298765 1.90241 196 187 173
-0.106153 -0.0695055 1.90734 121 125 115
-0.133066 0.0345311 1.88821 171 152 113
-0.129559 0.0264028 1.8896 206 184 149
-0.110277 -0.0425064 1.90313 107 108 98
-0.105709 -0.100735 1.90613 102 98 76
-0.131143 0.0441551 1.88663 144 135 118
-0.130475 0.0535516 1.88594 102 93 73
-0.123771 0.00382333 1.88964 189 178 157
-0.129267 0.0357717 1.88547 175 151 107
-0.100451 -0.114519 1.90368 60 51 32
-0.123187 0.019672 1.88715 74 62 39
-0.128257 0.0445248 1.88342 69 63 49
-0.106783 -0.0355282 1.89814 88 89 78
-0.101763 -0.0478638 1.89877 106 102 88
-0.103842 -0.0389353 1.89721 113 108 92
-0.126157 0.0553349 1.88175 31 25 16
-0.125216 0.0303034 1.88223 110 92 62
-0.126588 0.0480176 1.88107 42 38 29
-0.125439 0.0352644 1.8812 51 42 25
-0.124523 0.0411556 1.8797 74 65 44
-0.100416 -0.0413997 1.89574 111 108 94
-0.124083 0.0507963 1.87845 115 102 80
-0.101451 -0.0321961 1.89308 192 185 166
-0.121823 0.0323479 1.87857 163 142 104
-0.122213 0.0439726 1.87747 51 46 33
-0.10466 -0.0106932 1.88874 77 75 63
-0.121844 0.0536458 1.87613 105 98 76
-0.118616 0.0318413 1.87514 82 67 38
-0.11927 0.0432743 1.87461 79 69 47
-0.118865 0.0384514 1.87473 172 154 120
-0.100781 -0.0192346 1.88663 144 139 121
-0.0999534 -0.0260751 1.88694 116 107 88
-0.119225 0.0505411 1.8737 55 52 41
-0.0983891 -0.0158001 1.88563 149 144 127
-0.0942365 -0.0390179 1.88713 132 121 100
-0.0967923 -0.0228271 1.88508 174 166 147
-0.0964178 -0.00676309 1.88534 81 75 57
-0.096199 -0.0276481 1.88533 94 91 77
-0.0968597 -0.0119823 1.88333 125 123 107
-0.114096 0.0318169 1.87149 81 65 41
-0.114813 0.0423 1.87074 57 47 28
-0.114542 0.046743 1.86982 131 116 88
-0.114369 0.0519376 1.86944 133 122 101
-0.0919317 -0.0311514 1.88395 185 177 157
-0.0945029 -0.00876344 1.88143 52 46 31
-0.112175 0.0393747 1.86864 53 48 35
-0.0939375 0.0129627 1.87915 165 147 114
-0.109897 0.0328837 1.86712 93 82 58
-0.110218 0.0503053 1.86642 126 117 96
-0.0906165 -0.00627542 1.87729 86 84 67
-0.0817054 -0.0458199 1.88222 198 191 177
-0.107475 0.041585 1.8644 55 49 34
-0.106889 0.0524231 1.86403 46 41 30
-0.106365 0.033244 1.86379 67 59 37
-0.103651 0.0254904 1.86536 47 36 19
-0.0897166 -0.0144718 1.87397 151 139 115
-0.0740336 -0.0534814 1.88073 208 201 186
-0.101568 0.0232291 1.86241 114 92 67
-0.10335 0.0470894 1.86108 36 32 24
-0.0843508 -0.0304195 1.87203 150 134 106
-0.0888752 -0.00911321 1.86897 46 38 23
-0.085387 -0.0259353 1.87002 133 119 95
-0.0471199 -0.0848002 1.89452 143 129 104
-0.0861864 -0.0220935 1.86881 102 89 69
-0.102127 0.0411462 1.8587 125 110 81
-0.093406 0.0157116 1.86352 168 145 107
-0.089912 -0.00686596 1.86486 124 112 92
-0.100619 0.0481139 1.85753 35 30 21
-0.0995423 0.0345594 1.85646 169 143 98
-0.09918 0.0441976 1.85601 48 46 35
-0.0879906 -0.010435 1.86247 139 122 93
-0.098158 0.0545064 1.85501 97 91 76
-0.0859974 -0.0170167 1.86187 176 159 129
-0.0928748 0.019607 1.85648 190 172 137
-0.0579172 -0.0648683 1.87741 162 145 117
-0.0870155 -0.00654722 1.85885 127 105 75
-0.0955889 0.0583936 1.85302 84 79 60
-0.0926705 0.0296067 1.85414 202 181 146
-0.0876973 -0.00243148 1.85709 163 149 120
-0.0846819 0.00366257 1.85744 36 27 12
-0.0932655 0.0540769 1.85064 88 88 77
-0.0861872 0.000626397 1.85482 63 59 45
-0.0890069 0.0187841 1.85177 47 36 21
-0.0872397 0.0666215 1.85298 158 167 166
-0.084224 -0.00632487 1.85426 121 110 89
-0.0864052 0.00811948 1.85236 204 189 160
-0.0918619 0.0487704 1.84911 38 36 29
-0.0877959 0.0118545 1.85093 167 146 110
-0.0914687 0.0415811 1.84863 135 120 89
-0.0887696 0.0578568 1.84744 84 80 64
-0.0882941 0.0514911 1.84693 31 29 24
-0.0828162 0.0017141 1.85001 129 118 93
-0.084562 0.0252928 1.84861 18 13 6
-0.0822789 -0.00307475 1.84989 108 92 65
-0.0798374 -0.0162228 1.85059 123 106 79
-0.0856786 0.0181641 1.84711 82 63 35
-0.0883238 0.0384726 1.84451 60 56 41
-0.0836813 0.0326696 1.84634 87 78 58
-0.0838914 0.0147907 1.84505 129 104 69
-0.0867442 0.0477362 1.84318 28 27 22
-0.0805977 0.000118279 1.84587 122 105 79
-0.0798261 0.00558035 1.8455 28 22 11
-0.0823591 0.0296568 1.84339 98 87 61
-0.0578273 -0.0578508 1.85754 162 148 128
-0.0749476 -0.0229467 1.84695 144 127 102
-0.0831519 0.0241726 1.84201 33 27 15
-0.0838229 0.0536182 1.83991 77 79 66
-0.0821401 0.0179495 1.84019 163 146 113
-0.0810937 0.0334709 1.84032 197 176 138
-0.0822235 0.0596556 1.83953 65 63 47
-0.0833733 0.0459231 1.83855 93 85 65
-0.0800789 0.0274683 1.83969 33 25 12
-0.0828026 0.0374434 1.8378 142 120 84
-0.0567992 -0.0549282 1.85278 161 146 121
-0.0804906 0.0135283 1.83829 77 62 36
-0.0818931 0.042057 1.83677 95 89 73
-0.0731625 -0.0153731 1.84107 150 134 111
-0.0787829 0.00782966 1.8377 209 198 175
-0.075016 -0.00692304 1.83927 132 119 97
-0.0799374 0.0464024 1.83511 56 52 41
-0.0790562 0.0507437 1.83459 86 84 70
-0.0791866 0.0386323 1.83423 43 40 31
-0.0754524 0.00380549 1.83572 148 132 99
-0.0776268 0.0343624 1.83386 104 95 62
-0.07604 0.0604027 1.83274 48 50 44
-0.0520763 -0.0536305 1.84529 155 140 112
-0.0752256 0.0364482 1.83004 44 39 27
-0.0747285 0.0522591 1.83013 88 87 73
-0.0616957 -0.0309845 1.83691 144 129 101
-0.0717285 0.00740638 1.83088 147 131 101
-0.0743077 0.0447962 1.82905 96 87 65
-0.0731308 0.0407184 1.82762 141 119 82
-0.0717717 0.035192 1.82728 101 89 65
-0.0706683 0.0184336 1.82663 76 68 47
-0.0712727 0.0510223 1.82617 29 27 22
-0.0714821 0.0439673 1.8253 73 63 42
-0.055268 -0.0319366 1.83217 142 127 103
-0.0616817 -0.0139663 1.82845 139 127 102
-0.0643276 0.003393 1.82571 126 109 80
-0.0666356 0.0279326 1.82428 56 48 30
-0.0553969 -0.0272473 1.82996 111 97 76
-0.0681252 0.039826 1.82277 150 132 92
-0.066715 0.0435954 1.82129 105 91 61
-0.0660838 0.0338759 1.82128 61 55 40
-0.042624 -0.0480435 1.83213 144 131 108
-0.0643293 0.0463384 1.81904 102 88 59
-0.0478119 -0.0322022 1.8279 201 190 170
-0.0623731 0.0341007 1.81619 127 116 95
-0.054112 -0.00104564 1.81995 134 116 80
-0.0607694 0.0467857 1.81511 34 30 22
-0.0599436 0.0186478 1.81441 92 78 57
-0.0597715 0.0316874 1.81395 82 72 52
-0.0454415 -0.0184232 1.8205 138 126 104
-0.0587792 0.0380099 1.81297 140 121 82
-0.0546893 0.061088 1.81457 51 52 46
-0.0566113 0.0328768 1.8105 130 111 78
-0.0543732 0.0507572 1.80937 76 77 69
-0.0524221 0.0611573 1.81004 65 61 45
-0.0530584 0.0450483 1.8076 82 82 70
-0.0512555 0.0319324 1.80552 148 133 109
-0.0512625 0.0472198 1.80425 51 43 32
-0.0506678 0.0365642 1.80388 105 92 68
-0.0465127 0.0437166 1.8002 123 105 80
-0.0461045 0.0379009 1.80008 37 32 23
-0.153211 0.0207129 1.98114 220 203 180
-0.141389 0.0120139 1.9887 100 83 62
-0.152799 0.0102177 1.96996 54 43 30
-0.151438 -0.00375139 1.96692 100 95 83
-0.151495 -0.0104883 1.96501 106 100 84
-0.156953 -0.0904755 1.96031 80 79 65
-0.180705 0.0564694 1.94514 160 146 139
-0.158518 -0.0967083 1.95615 188 177 153
-0.158934 -0.0853863 1.9538 41 35 23
-0.179682 0.034481 1.94007 116 100 82
-0.180278 0.0385295 1.93788 120 101 78
-0.179755 0.0434903 1.93442 34 30 24
-0.178062 0.052798 1.93276 82 74 56
-0.17636 0.0332453 1.92958 135 113 86
-0.143115 -0.00987827 1.94523 67 60 45
-0.140523 -0.0143519 1.94649 94 95 89
-0.156506 0.0615098 1.91868 82 86 86
-0.131966 -0.118393 1.92998 75 73 62
-0.15934 0.0397813 1.91193 144 130 103
-0.118456 -0.0972298 1.91732 100 100 88
-0.122418 -0.0285578 1.90902 56 54 45
-0.138562 0.0231552 1.90036 52 42 24
-0.111355 -0.114947 1.91117 66 59 40
-0.137066 0.0431114 1.89158 152 135 104
-0.130582 0.0630949 1.89337 158 167 167
-0.131085 0.0169164 1.89159 63 52 34
-0.109572 -0.0313294 1.89875 193 185 169
-0.127983 0.0544842 1.88367 39 33 21
-0.0909937 -0.125353 1.90006 142 130 110
-0.080643 -0.0608279 1.889 151 143 125
-0.110285 0.0502979 1.86641 121 111 90
-0.107614 0.0415628 1.86438 50 43 28
-0.101875 0.0652431 1.86616 72 76 77
-0.0627276 -0.0635849 1.88207 176 163 140
-0.104873 0.0556092 1.86255 73 64 44
-0.0958168 0.0265163 1.85633 70 62 43
-0.0880241 -0.00243424 1.85705 161 147 119
-0.0921083 0.0295986 1.85422 200 178 141
-0.0863754 0.000621597 1.85479 63 59 45
-0.0879139 0.0118456 1.85091 163 143 106
-0.0916255 0.0415629 1.84861 135 119 87
-0.0751744 -0.0229366 1.84692 145 130 108
-0.07339 -0.0153761 1.84105 148 132 109
-0.0792417 0.0386251 1.83422 41 38 29
-0.0727673 0.0391221 1.82646 72 64 44
-0.0400487 -0.0468683 1.82912 134 120 97
-0.0574741 0.0434389 1.8113 96 85 64
-0.0513258 0.0492241 1.80337 97 86 66
-0.121344 0.0580137 2.00862 158 167 167
-0.148632 0.0285935 1.99154 140 122 94
-0.149907 0.0211251 1.98934 124 105 83
-0.121215 -0.015244 2.00323 210 199 181
-0.153643 0.0262841 1.98581 106 90 70
-0.155552 0.0312156 1.98424 53 46 35
-0.129559 -0.0106126 1.9961 146 126 100
-0.159305 0.0338139 1.98032 120 96 68
-0.160957 0.0288983 1.97779 83 64 46
-0.156131 0.0232051 1.97849 147 119 84
-0.158984 0.0516762 1.97594 68 63 53
-0.147785 0.0182652 1.98057 195 176 151
-0.143478 0.0160095 1.98123 186 167 146
-0.15164 0.0189259 1.97714 85 75 61
-0.157897 0.0208177 1.97255 202 178 148
-0.157947 -0.0976564 1.96715 155 141 118
-0.169728 0.0230289 1.96129 129 106 88
-0.176572 0.049172 1.95599 21 16 12
-0.177133 0.023049 1.95272 187 164 138
-0.181284 0.0535168 1.94849 4 3 2
-0.152024 0.0165509 1.95623 111 106 94
-0.151506 -0.0932319 1.9521 194 182 159
-0.169811 0.0161416 1.93706 70 63 50
-0.107208 -0.135834 1.96267 147 131 110
-0.128659 -0.127616 1.94905 113 103 85
-0.126164 -0.051005 1.94766 65 62 54
-0.137366 -0.0797481 1.94268 20 16 9
-0.128329 -0.0642045 1.94575 62 61 55
-0.140764 -0.011158 1.939 96 89 72
-0.327466 0.0464913 1.85005 158 167 167
-0.126973 -0.0339584 1.92042 203 192 173
-0.109659 -0.141191 1.92464 211 198 178
-0.116965 -0.137967 1.92129 164 146 122
-0.120954 -0.0945823 1.91877 131 126 108
-0.124772 -0.127142 1.91692 92 87 70
-0.118276 -0.0906464 1.91767 102 102 87
-0.116436 -0.127842 1.91796 115 114 98
-0.150245 0.0442215 1.90402 59 54 37
-0.103574 -0.142026 1.91907 201 189 172
-0.103615 -0.131802 1.91046 94 88 72
-0.114055 -0.0139211 1.89451 190 181 161
-0.123257 0.00763543 1.89002 192 175 149
-0.114053 -0.00808353 1.89293 196 189 172
-0.123297 0.0644049 1.88883 158 167 167
-0.11661 -0.000499882 1.88908 203 193 175
-0.108496 -0.0051673 1.88996 96 90 66
-0.116473 0.00586853 1.88445 83 78 61
-0.0903965 -0.0553415 1.89269 191 185 171
-0.115966 0.0250402 1.88183 125 109 83
-0.0941535 0.0130074 1.87911 168 150 118
-0.07258 -0.0574062 1.88144 133 125 105
-0.0674701 -0.0612141 1.88157 145 132 108
-0.0873412 -0.000421424 1.87271 24 19 8
-0.0846842 -0.0303999 1.87198 149 132 103
-0.087109 0.0121893 1.87079 65 63 55
-0.0986882 0.0225222 1.85963 158 138 106
-0.088335 -0.0104273 1.86242 144 131 106
-0.0606126 -0.0618787 1.8693 158 144 118
-0.0879964 0.0665713 1.85288 158 167 167
-0.0824314 0.0420292 1.83671 95 88 71
-0.0805178 0.0463561 1.83505 55 51 39
-0.0782701 0.0241472 1.82966 124 107 78
-0.0658069 -0.000756675 1.82698 163 150 122
-0.0681493 0.058588 1.8235 69 67 54
-0.0632084 0.0308101 1.819 159 137 105
-0.0625435 0.02671 1.81738 50 44 28
-0.0639723 0.0390755 1.81704 50 43 26
-0.0232617 -0.0404826 1.82013 158 144 118
-0.0450771 0.0543443 1.8105 24 25 21
-0.0340565 0.0635524 1.79679 158 167 167
-0.0354816 0.0447886 1.79496 47 48 41
-0.0336698 0.0476076 1.7925 158 166 166
-0.100481 0.0299611 1.863 196 175 139
-0.0455984 0.0700878 1.82464 158 166 166
-0.0411243 0.070437 1.82452 157 166 166
-0.0908872 -0.0132556 1.86927 153 139 114
-0.0831377 0.00322275 1.8422 131 116 91
-0.142091 0.00471077 1.99173 202 185 160
-0.179797 0.0516896 1.95435 92 79 60
-0.183769 0.0533216 1.94735 4 3 2
-0.154296 0.0160147 1.95192 46 42 37
-0.143383 -0.0083493 1.93564 90 81 66
-0.0652001 -0.00453692 1.82333 99 91 70
-0.142819 0.0279263 1.99977 109 96 78
-0.142895 0.0225316 1.99933 96 80 62
-0.151082 0.0223951 1.99311 109 89 67
-0.152074 0.0274145 1.99252 50 43 30
-0.1465 0.00872434 1.99376 165 147 122
-0.135785 -0.0101594 1.99624 158 140 117
-0.15003 0.0495151 1.99154 78 79 72
-0.15582 0.0297968 1.98949 51 46 37
-0.155508 0.0242435 1.98939 52 42 30
-0.149931 0.0144963 1.98923 70 56 40
-0.158607 0.0242723 1.98617 40 35 29
-0.144129 0.00149169 1.99041 161 140 115
-0.147811 0.00835478 1.98863 101 87 69
-0.13063 -0.0154198 1.99265 189 174 150
-0.163825 0.0308535 1.98161 51 44 33
-0.161367 0.0260206 1.98151 85 67 50
-0.162808 0.0532182 1.97793 6 5 6
-0.149132 0.0165446 1.98198 192 172 148
-0.167026 0.0511115 1.97347 70 67 58
-0.171032 0.0265992 1.97059 169 144 114
-0.164401 -0.00135888 1.96988 123 108 89
-0.173596 0.0230572 1.96577 140 112 79
-0.1766 0.033122 1.96376 109 96 82
-0.178539 0.0309853 1.96058 70 57 46
-0.179414 0.0260266 1.9584 53 46 36
-0.184453 0.0420226 1.95502 151 125 95
-0.180848 0.047361 1.95598 75 59 40
-0.130345 0.0376159 1.97041 49 45 37
-0.182915 0.0263602 1.95383 80 62 46
-0.182919 0.0228038 1.95106 194 174 151
-0.16419 -0.0979804 1.95376 204 196 177
-0.128942 -0.122287 1.96236 159 146 129
-0.113049 -0.13485 1.96108 154 138 117
-0.16073 0.0201324 1.94708 114 97 79
-0.150024 -0.00255927 1.94908 36 26 14
-0.130226 -0.131093 1.94996 212 197 180
-0.148596 -0.00318265 1.94431 75 65 50
-0.151189 -0.0985718 1.94215 105 104 88
-0.176515 0.00886422 1.93566 91 74 58
-0.17654 0.0209715 1.93535 65 51 34
-0.148888 -0.00449356 1.93946 81 73 60
-0.132597 -0.13058 1.94087 211 199 183
-0.121884 -0.137279 1.94144 207 194 178
-0.142226 -0.0110762 1.9234 210 198 179
-0.122799 -0.136326 1.92453 153 134 109
-0.0951374 -0.0981136 1.90862 10 10 8
-0.110335 0.0225284 1.8745 160 126 76
-0.0933975 0.010472 1.86903 88 83 66
-0.0975422 0.0107137 1.86532 77 69 55
-0.0616553 -0.0561213 1.84828 174 157 131
-0.0645619 0.0231032 1.8155 63 59 42
-0.0401634 -0.000597817 1.81225 48 43 28
-0.0600105 0.067819 1.83239 45 46 46
-0.15118 0.0259206 1.91484 196 179 150
-0.117493 0.0625594 1.84082 69 72 73
-0.0298466 0.0732482 1.85522 157 166 166
-0.133009 0.0615095 1.84309 70 70 69
-0.00431855 0.0748803 1.85224 157 166 166
-0.112428 -0.136308 1.95647 194 177 156
-0.120456 0.0581457 2.00893 158 167 167
-0.136815 0.000498396 1.9967 208 194 174
-0.125511 0.064207 1.86647 158 167 166
-0.113763 0.0588837 2.00927 158 167 167
-0.130467 0.0257604 2.00504 52 45 34
-0.125328 0.0498657 2.00587 94 90 76
-0.107166 0.0537331 2.00914 11 11 11
-0.13467 0.0266322 2.00163 124 112 90
-0.127996 -0.000115219 2.00109 63 54 40
-0.124783 -0.0103928 2.00143 210 197 175
-0.136064 0.0193457 1.99917 129 107 84
-0.129942 0.0592776 1.99832 159 167 167
-0.13803 0.00715683 1.99662 153 136 114
-0.141273 0.0206309 1.99594 100 82 58
-0.130827 -0.00520165 1.99715 200 184 157
-0.139328 0.0128121 1.99492 134 121 101
-0.145508 0.0303732 1.9938 146 125 93
-0.141125 0.0149218 1.99074 74 58 39
-0.148872 0.0439563 1.98892 82 78 67
-0.154967 0.0505536 1.98303 74 66 53
-0.140408 0.00782174 1.98481 138 115 86
-0.157977 0.0420115 1.98188 113 92 71
-0.122109 -0.00982672 1.98519 117 94 69
-0.118116 -0.0133373 1.98574 159 138 112
-0.139976 0.0109593 1.9813 51 41 28
-0.165284 0.0213378 1.96535 214 188 153
-0.174603 0.0518646 1.96014 92 81 66
-0.121477 -0.120299 1.96475 75 63 49
-0.098422 -0.134657 1.96699 135 159 179
-0.103414 -0.136553 1.96373 41 35 26
-0.126608 -0.0631465 1.9588 85 83 73
-0.100056 -0.139587 1.96061 207 191 171
-0.143789 -0.00316153 1.95389 29 22 11
-0.121407 -0.132357 1.95391 211 195 176
-0.141427 -0.000893918 1.94579 42 33 22
-0.10837 -0.139774 1.94756 205 192 178
-0.142 -0.00581331 1.94223 95 86 70
-0.16492 0.00297596 1.93867 151 128 103
-0.114102 -0.138415 1.94228 210 197 180
-0.167322 0.00321136 1.93319 172 148 123
-0.13235 -0.0246687 1.93552 67 71 70
-0.132909 -0.0215464 1.92978 209 198 180
-0.129452 -0.0285349 1.92897 98 96 91
-0.115186 -0.0885634 1.91705 46 43 33
-0.159013 0.0507292 1.9102 21 18 12
-0.0855896 -0.134392 1.91195 89 83 65
-0.0967733 -0.107064 1.89762 82 79 63
-0.0924301 -0.0559251 1.89643 105 113 110
-0.0828239 -0.0634936 1.89436 208 201 186
-0.0851371 -0.055438 1.88914 153 147 131
-0.0560296 -0.0647726 1.8764 164 147 120
-0.101864 0.0228961 1.87475 168 136 86
-0.0843955 0.00761351 1.87491 104 99 79
-0.0895607 -0.00640396 1.87396 88 83 63
-0.0889146 -0.0156119 1.87221 101 91 75
-0.0824366 -0.0345081 1.87179 149 134 109
-0.0842933 0.0108133 1.86924 88 83 67
-0.0848748 -0.0258592 1.86884 133 119 96
-0.0865628 -0.0193868 1.86824 140 121 92
-0.0576344 -0.0618975 1.86844 157 142 117
-0.0890937 -0.00925462 1.86773 41 34 21
-0.0889976 0.0109238 1.86548 79 70 56
-0.0898234 -0.00681202 1.86365 132 119 99
-0.0898462 0.0157887 1.86247 195 172 138
-0.0889239 -0.00228859 1.86216 86 77 58
-0.0875867 -0.0104037 1.86125 145 131 106
-0.0850764 -0.0194512 1.86123 143 131 110
-0.0861045 -0.0143493 1.86031 97 87 68
-0.0572591 -0.058587 1.85919 166 151 123
-0.0867399 -0.00651566 1.85762 130 111 84
-0.085019 0.00365696 1.85615 34 25 10
-0.0995626 0.0442253 1.85493 50 48 38
-0.0828097 -0.0137409 1.85415 138 125 102
-0.0864726 0.000696458 1.8535 69 65 52
-0.0838652 -0.00633865 1.85304 121 110 89
-0.0550202 -0.0548901 1.85167 161 146 122
-0.0888885 0.0188082 1.85044 55 45 26
-0.0794373 -0.016204 1.84933 125 108 81
-0.0828503 0.00176272 1.84872 130 119 95
-0.0819963 -0.00311453 1.84863 110 95 69
-0.0835709 0.0278091 1.84842 84 75 50
-0.051128 -0.0565738 1.84827 177 161 137
-0.0903575 0.0580259 1.84601 85 82 65
-0.0744413 -0.0229213 1.84575 146 130 106
-0.085988 0.0181806 1.84579 82 63 37
-0.0804235 -0.0010997 1.84458 164 151 125
-0.0797791 0.0055689 1.84429 27 22 11
-0.0818387 0.0302518 1.84427 33 22 8
-0.0498042 -0.0505148 1.84142 151 138 114
-0.0873251 0.0411073 1.84105 47 43 33
-0.080994 0.0132613 1.83981 102 87 61
-0.0821725 0.018184 1.83891 158 141 106
-0.0539436 -0.0423134 1.8376 148 133 111
-0.0805509 0.023006 1.83673 94 86 61
-0.0828871 0.0548527 1.8364 90 88 75
-0.0827132 0.0422663 1.83539 90 87 75
-0.081992 0.0482569 1.8351 123 111 92
-0.0765578 0.0058945 1.83475 60 54 35
-0.0787071 0.0617344 1.83417 3 3 3
-0.0422803 -0.0495046 1.83327 158 146 118
-0.0781537 0.0343882 1.8325 101 91 60
-0.072135 0.00949306 1.82999 75 69 50
-0.0748786 0.0448394 1.82766 97 90 70
-0.0607265 -0.0138962 1.82719 140 127 103
-0.0473405 -0.0304282 1.82674 134 125 104
-0.0731511 0.0497442 1.82623 93 88 77
-0.0722548 0.0352546 1.82591 100 88 63
-0.0679777 0.0587519 1.82215 69 67 53
-0.0683282 0.0399384 1.82138 135 119 83
-0.0667178 0.0342013 1.8204 70 64 47
-0.0672078 0.0436837 1.81989 109 95 65
-0.0646745 0.0507837 1.8182 83 83 69
-0.0636183 0.0193224 1.81741 40 33 20
-0.0643215 0.0348606 1.81667 66 60 43
-0.0604934 0.0232961 1.81534 57 52 34
-0.0612924 0.0468457 1.81366 32 28 21
-0.05959 0.0405435 1.81216 38 34 24
-0.0581751 0.032298 1.81085 58 54 40
-0.0574144 0.0435719 1.80991 96 86 65
-0.0403379 0.0559887 1.80909 19 18 16
-0.0527122 0.061372 1.80865 63 58 42
-0.0548258 0.0314599 1.80794 108 90 63
-0.0533294 0.0469171 1.80621 47 45 37
-0.139541 0.00159914 1.99188 161 140 115
-0.180696 0.0421766 1.95611 151 125 95
-0.143791 -0.00315229 1.94559 75 65 50
-0.105105 0.0537301 2.00952 11 11 11
-0.124016 0.0179341 2.0053 210 193 162
-0.137177 0.0292227 1.99984 50 45 36
-0.139735 0.0325735 1.99795 89 84 71
-0.137296 0.0061319 1.99711 92 76 56
-0.128234 -0.0100266 1.99758 157 138 114
-0.139657 0.00902664 1.99497 170 152 129
-0.145321 0.0303798 1.99383 146 125 93
-0.139374 0.00542269 1.99057 144 124 101
-0.148557 0.0439878 1.98898 82 78 67
-0.151606 0.0246485 1.98735 44 37 30
-0.155118 0.0504504 1.983 74 66 53
-0.140311 0.00782475 1.98482 138 115 86
-0.157974 0.0420159 1.98188 113 92 71
-0.139623 0.0109669 1.98135 51 41 28
-0.166883 0.0247744 1.96827 176 153 125
-0.169629 0.0327183 1.96655 113 97 81
-0.172537 0.0275954 1.96053 111 96 80
-0.174713 0.0518621 1.96012 92 81 66
-0.177393 0.0312012 1.95568 90 78 63
-0.155903 -0.0907783 1.95711 80 78 63
-0.104705 -0.135993 1.96217 164 149 128
-0.126226 -0.0631778 1.95885 85 83 73
-0.143358 -0.00317963 1.95395 29 22 11
-0.151738 0.0161196 1.95224 43 39 34
-0.128235 -0.0503213 1.95475 50 50 45
-0.126915 -0.126504 1.95143 196 184 167
-0.153914 0.0203315 1.9479 114 97 80
-0.128017 -0.0646389 1.94952 112 112 98
-0.12635 -0.0572371 1.94942 108 111 100
-0.140876 -0.000880029 1.94585 42 33 22
-0.124971 -0.0510018 1.94682 62 60 52
-0.124432 -0.0574421 1.94563 98 101 93
-0.127443 -0.0642324 1.94485 56 54 48
-0.126227 -0.129037 1.94469 109 100 81
-0.123802 -0.0745787 1.9429 89 86 72
-0.125224 -0.0604332 1.9422 67 67 57
-0.141243 -0.00443827 1.9403 86 77 64
-0.125675 -0.0642321 1.93951 116 118 104
-0.133153 -0.116969 1.93845 139 134 120
-0.116564 -0.137084 1.93921 105 91 73
-0.122166 -0.0570025 1.93856 86 85 70
-0.139996 -0.00835334 1.93599 89 80 65
-0.136287 -0.0195826 1.93584 199 189 173
-0.1185 -0.1345 1.93584 110 95 73
-0.12104 -0.0753448 1.9349 102 102 89
-0.121846 -0.0673918 1.93465 68 64 52
-0.12124 -0.0561887 1.93417 39 36 27
-0.12493 -0.0815755 1.93215 34 30 21
-0.120971 -0.0584523 1.93022 37 35 27
-0.127688 -0.0297781 1.92713 90 94 94
-0.118741 -0.0780271 1.92719 106 108 98
-0.119912 -0.0599742 1.92602 54 52 43
-0.123891 -0.0384265 1.9251 69 67 57
-0.133143 -0.0235883 1.92423 199 189 173
-0.135135 -0.0110886 1.92404 212 200 182
-0.122353 -0.0427999 1.92421 76 76 68
-0.124774 -0.0344668 1.92295 129 119 102
-0.129349 -0.0276458 1.92189 201 190 169
-0.117091 -0.0590221 1.92117 42 37 28
-0.117857 -0.0648741 1.92002 73 68 54
-0.124971 -0.0326623 1.91892 174 162 142
-0.116588 -0.0892059 1.91896 105 110 100
-0.126011 -0.0291289 1.91538 199 189 171
-0.111606 -0.0624495 1.91311 77 77 65
-0.0970431 -0.114946 1.903 67 58 39
-0.106563 -0.0334507 1.89804 175 170 157
-0.0964009 -0.108528 1.89812 168 156 134
-0.0939574 -0.0130206 1.88169 86 81 66
-0.0877649 -0.0071853 1.87554 51 45 29
-0.0526603 -0.0649534 1.87649 164 147 120
-0.0859968 -0.0156189 1.87228 101 91 75
-0.079571 -0.0345633 1.87186 149 134 109
-0.103224 0.024795 1.87045 151 119 75
-0.0820327 -0.0258991 1.86891 133 119 96
-0.0835826 -0.0194061 1.8683 140 121 92
-0.0542097 -0.0620643 1.86852 157 142 117
-0.103653 0.0224619 1.86628 191 169 135
-0.0864116 -0.00984225 1.86524 144 126 97
-0.105776 0.0418044 1.86295 53 46 32
-0.0846003 -0.0103891 1.86129 145 131 106
-0.0820412 -0.0194583 1.86128 143 131 110
-0.0928565 0.0162112 1.85946 157 131 91
-0.0823648 -0.0147964 1.85942 108 100 83
-0.0537594 -0.0587427 1.85923 166 151 123
-0.0994305 0.0435123 1.85647 44 39 28
-0.0849697 -0.00229757 1.8558 151 134 107
-0.0795117 -0.0137359 1.85417 138 125 102
-0.0831831 0.000759694 1.85352 69 65 52
-0.0869273 0.0186772 1.85228 34 28 15
-0.0838374 0.0131791 1.84942 65 58 38
-0.0793019 0.00182039 1.84872 130 119 95
-0.0785911 -0.00307572 1.84863 110 95 69
-0.0804964 0.0254104 1.84709 19 15 6
-0.0867417 0.0583372 1.846 85 82 65
-0.0823862 0.0182903 1.84577 82 63 37
-0.0766658 -0.00105011 1.84456 164 151 125
-0.0759913 0.0056409 1.84426 27 22 11
-0.0458124 -0.0506411 1.84138 151 138 114
-0.0838097 0.0479608 1.84169 29 28 22
-0.0779791 0.0284946 1.84115 40 30 15
-0.0797117 0.0173964 1.84105 116 90 55
-0.0835393 0.0412974 1.84101 47 43 33
-0.0772332 0.0133375 1.83977 102 87 61
-0.081472 0.0376213 1.83962 65 62 49
-0.0774073 0.0338323 1.83904 184 162 121
-0.0806724 0.0567814 1.83869 94 93 79
-0.0744965 0.00490067 1.83841 90 77 53
-0.0794788 0.046232 1.83714 92 85 69
-0.0766633 0.023167 1.83668 94 86 61
-0.0759834 0.0599154 1.83549 73 71 57
-0.0769051 0.0150738 1.83537 112 97 72
-0.077963 0.038291 1.83476 49 44 32
-0.0739243 0.0345816 1.83242 101 91 60
-0.0717198 0.0608504 1.83126 44 46 41
-0.072817 0.0393957 1.83064 94 89 68
-0.0678902 0.00956612 1.8299 75 69 50
-0.0710277 0.0526152 1.82862 87 88 75
-0.0703829 0.045093 1.82755 97 90 70
-0.0690221 0.0411656 1.82606 142 120 79
-0.0668937 0.0531211 1.82466 102 95 79
-0.0657924 0.0482421 1.8227 100 85 57
-0.0640786 0.0386373 1.82118 56 50 36
-0.057917 0.0309804 1.81738 158 136 103
-0.0597919 0.046776 1.81743 103 90 61
-0.0562623 0.0471311 1.81346 32 28 21
-0.0522828 0.0405192 1.80954 89 82 63
-0.0477467 0.0472487 1.80595 47 45 37
-0.118078 0.0216973 2.01043 160 142 113
-0.121591 0.0278645 2.00948 100 86 65
-0.121898 0.0447024 2.00811 84 80 66
-0.125002 0.0219905 2.00746 137 119 92
-0.123808 0.050091 2.00594 92 88 74
-0.129211 0.0243366 2.00528 150 139 124
-0.12718 0.0369084 2.00479 87 83 68
-0.131206 0.0204422 2.00356 102 84 64
-0.132936 0.0283552 2.00262 57 50 37
-0.130699 0.0448229 2.00222 99 93 74
-0.124578 -0.0103408 2.00144 210 197 174
-0.128988 -0.00348184 2.00051 146 129 102
-0.132147 0.00841128 1.99882 86 76 61
-0.141182 0.0255137 1.99765 54 48 40
-0.139662 0.0301414 1.99747 53 44 32
-0.137524 0.00722251 1.99664 148 130 107
-0.140737 0.0207189 1.99596 94 78 55
-0.140779 0.0419786 1.99589 85 77 59
-0.138733 0.0530291 1.99543 9 9 10
-0.140417 0.0161144 1.99426 64 58 47
-0.146116 0.0335783 1.99257 104 95 75
-0.148235 0.04407 1.98894 81 77 66
-0.150905 0.0269467 1.98813 147 128 103
-0.150448 0.0212884 1.98804 122 103 82
-0.153403 0.028981 1.98525 139 119 92
-0.120686 -0.00978739 1.98522 119 96 70
-0.135349 0.0011413 1.98415 152 129 103
-0.155295 0.0339313 1.98363 30 22 14
-0.124056 -0.00643165 1.98384 124 97 70
-0.155293 0.0504292 1.98302 76 68 54
-0.150477 0.0201372 1.98249 214 198 177
-0.155691 0.0245569 1.98232 185 164 136
-0.157976 0.042052 1.98188 113 93 71
-0.139513 0.00968359 1.98192 138 119 95
-0.159283 0.0377042 1.98064 111 96 76
-0.160888 0.0338864 1.97892 129 103 70
-0.160841 0.0279462 1.97784 192 170 138
-0.153528 0.0210479 1.97707 200 180 154
-0.157674 -0.002685 1.97495 142 127 108
-0.160894 0.0517221 1.97439 72 68 60
-0.0802299 -0.0311638 1.97512 115 99 78
-0.165225 0.0320597 1.97395 103 90 78
-0.163776 0.0255629 1.9731 142 115 89
-0.0823115 -0.0352787 1.97394 65 56 42
-0.0847177 -0.0317798 1.97353 89 76 57
-0.156783 0.0048912 1.97166 53 42 29
-0.0891092 -0.0334281 1.972 132 117 94
-0.158757 0.0233653 1.9714 173 146 115
-0.166792 0.0348693 1.97109 84 74 62
-0.166563 0.0288214 1.97092 71 61 47
-0.15653 -0.00602251 1.97098 86 79 70
-0.157748 0.0188961 1.97031 88 73 54
-0.0930944 -0.0314752 1.97039 79 71 57
-0.163483 0.022103 1.96955 150 120 90
-0.153422 0.00738166 1.96903 82 74 60
-0.166943 0.0247869 1.96827 176 153 125
-0.168993 0.0386702 1.96816 81 71 57
-0.153692 -0.00923888 1.96806 111 106 94
-0.169184 0.0312961 1.96737 140 125 107
-0.0987159 -0.0670284 1.96737 123 114 97
-0.166896 0.051965 1.96604 68 64 53
-0.105323 -0.0663226 1.96512 110 109 100
-0.121142 -0.120367 1.96475 73 62 48
-0.171161 0.0354186 1.96451 89 76 62
-0.170664 0.0279898 1.96397 126 110 92
-0.151681 -0.0104531 1.96392 105 99 83
-0.169987 0.0235289 1.96362 163 143 118
-0.107347 -0.13087 1.96264 203 187 167
-0.104107 -0.136061 1.96209 159 143 122
-0.150506 -0.00640758 1.96163 31 25 15
-0.135912 -0.0310002 1.96131 106 112 108
-0.146975 -0.00312502 1.96129 97 87 68
-0.173102 0.0312746 1.96137 62 51 42
-0.174828 0.0518587 1.96014 94 83 70
-0.17351 0.0251617 1.95948 129 108 88
-0.125824 -0.0632107 1.95879 86 83 74
-0.175325 0.0371527 1.9588 39 32 25
-0.177082 0.0450243 1.9588 115 99 82
-0.140142 -0.114294 1.95866 209 198 183
-0.175921 0.0325002 1.95778 74 64 54
-0.129425 -0.0438644 1.95696 48 50 45
-0.144911 -0.00465447 1.95568 68 59 45
-0.109877 -0.135633 1.95531 60 50 38
-0.179074 0.042178 1.95586 156 132 102
-0.12781 -0.0503397 1.95468 50 50 45
-0.179943 0.0473524 1.95521 79 63 42
-0.153087 0.0165036 1.95484 112 107 95
-0.177451 0.0250531 1.95468 164 139 111
-0.178748 0.0517809 1.95454 92 79 59
-0.11738 -0.133083 1.95384 207 190 172
-0.178586 0.0300674 1.9542 72 57 44
-0.0965864 -0.144044 1.95309 200 183 165
-0.127509 -0.0558301 1.95308 108 110 96
-0.131162 -0.0649696 1.95284 107 107 93
-0.178859 0.0368134 1.95304 130 114 95
-0.145294 -0.00866683 1.95224 66 60 47
-0.126838 -0.126521 1.95141 197 186 169
-0.143348 0.000412226 1.95125 98 92 81
-0.109703 -0.138077 1.95083 147 124 99
-0.181301 0.0449938 1.95128 69 58 44
-0.127338 -0.0591183 1.95027 47 43 30
-0.140289 -0.0146719 1.94981 57 50 39
-0.127742 -0.0646882 1.94947 112 115 103
-0.181371 0.0383039 1.94956 165 147 123
-0.180619 0.0331004 1.94877 37 34 27
-0.145304 0.00925739 1.94776 57 48 39
-0.124166 -0.0510297 1.9467 62 60 52
-0.143312 -0.00782141 1.9467 31 26 18
-0.182004 0.0421982 1.9468 55 45 33
-0.123705 -0.0574858 1.94552 98 101 92
-0.180831 0.0286223 1.94617 80 65 50
-0.126955 -0.0642703 1.94477 61 61 54
-0.181854 0.0354963 1.94532 64 59 48
-0.179716 0.0240449 1.94502 134 112 89
-0.141078 0.00145673 1.9439 76 70 58
-0.163633 0.0133357 1.94408 95 85 66
-0.183079 0.0484876 1.94438 139 126 105
-0.123377 -0.0746207 1.94283 91 88 74
-0.183262 0.0561935 1.94357 157 142 135
-0.124554 -0.060478 1.94209 70 71 62
-0.132873 -0.021891 1.94083 62 71 76
-0.139999 -0.0139789 1.94061 200 185 165
-0.181189 0.0289762 1.9415 55 48 39
-0.163493 0.0038156 1.94094 155 138 116
-0.140104 -0.00859879 1.93994 69 57 40
-0.136665 -0.0184784 1.93984 76 71 58
-0.181658 0.0337993 1.94111 82 66 51
-0.124935 -0.0642552 1.93939 117 119 106
-0.121187 -0.0570538 1.9384 82 81 66
-0.180607 0.0252139 1.93943 103 85 63
-0.182671 0.0400269 1.93814 55 46 35
-0.135778 -0.0196031 1.93575 197 186 170
-0.127953 -0.0840495 1.93553 85 81 63
-0.130843 -0.0246599 1.93547 68 73 72
-0.181456 0.0289272 1.93713 55 48 37
-0.170587 0.00886853 1.9363 94 77 61
-0.166713 0.0156842 1.93605 44 39 30
-0.120942 -0.0674687 1.9345 69 65 53
-0.120378 -0.0562381 1.93403 41 38 30
-0.171464 0.0164989 1.93556 84 73 57
-0.139764 -0.0141099 1.93415 158 143 121
-0.181327 0.0528251 1.93549 56 50 38
-0.139281 -0.00699563 1.93346 204 189 172
-0.181687 0.0347037 1.93458 154 135 110
-0.119219 -0.0756287 1.93194 101 101 91
-0.12437 -0.0816796 1.93206 35 31 21
-0.122575 -0.0616851 1.93185 29 25 17
-0.182016 0.0445759 1.93393 140 126 101
-0.133432 -0.0230452 1.93195 101 91 76
-0.182132 0.0395695 1.93373 52 45 30
-0.166984 0.00318023 1.93317 171 147 122
-0.171923 0.0124385 1.93253 66 62 52
-0.119921 -0.0585244 1.93004 37 34 27
-0.179069 0.0268648 1.93206 166 139 105
-0.170161 0.00802488 1.93164 196 175 150
-0.180067 0.0525431 1.93122 83 74 55
-0.118514 -0.0779989 1.92838 53 50 38
-0.179743 0.0320639 1.93075 53 45 35
-0.17711 0.0226486 1.93038 147 122 93
-0.131375 -0.0255739 1.92843 138 129 114
-0.137836 -0.0105321 1.92865 212 199 182
-0.180408 0.0481934 1.93035 95 80 59
-0.178953 0.0408544 1.92941 78 66 51
-0.126679 -0.0298106 1.92695 95 96 94
-0.13559 -0.0183834 1.92706 172 157 133
-0.12193 -0.0650844 1.92611 105 106 93
-0.118919 -0.0600439 1.92584 56 53 45
-0.175008 0.0374282 1.92715 64 62 52
-0.123619 -0.0354781 1.92465 83 79 69
-0.177174 0.0489694 1.92693 35 27 19
-0.169647 0.0130402 1.92632 154 134 103
-0.121257 -0.0428499 1.92401 79 78 71
-0.132272 -0.02359 1.92407 200 190 174
-0.17641 0.0327294 1.92606 132 116 89
-0.116377 -0.0807977 1.92305 50 45 32
-0.128881 -0.028455 1.92344 63 62 55
-0.133293 -0.0177008 1.92335 73 69 56
-0.126063 -0.0318684 1.9228 208 198 181
-0.1744 0.0288703 1.9249 170 152 127
-0.178343 0.0422633 1.92501 69 63 51
-0.117131 -0.0620761 1.92139 29 26 19
-0.174832 0.0442923 1.92352 166 149 124
-0.118823 -0.0979667 1.92074 36 32 25
-0.117617 -0.0902037 1.92042 38 34 25
-0.173486 0.051354 1.92302 82 71 51
-0.171075 0.035284 1.92165 68 64 53
-0.130766 -0.0179179 1.9195 163 152 133
-0.169892 0.0261373 1.92126 172 154 128
-0.1239 -0.0327575 1.91872 175 163 143
-0.170152 0.0436374 1.92107 140 124 100
-0.164675 0.0148583 1.91993 141 126 102
-0.128462 -0.0266358 1.91688 127 116 100
-0.169452 0.0385566 1.91899 43 39 31
-0.167782 0.0499625 1.91878 20 17 12
-0.128431 -0.0205518 1.9166 172 162 144
-0.168374 0.0298667 1.91877 153 137 112
-0.167348 0.0438277 1.9173 50 43 32
-0.121313 -0.0362105 1.9145 198 187 168
-0.164624 0.0253626 1.91567 195 175 145
-0.150369 0.00201968 1.91483 177 161 136
-0.16415 0.0331396 1.91494 150 134 108
-0.163694 0.0484186 1.91483 43 38 28
-0.160387 0.030745 1.91268 154 135 105
-0.161292 0.0437737 1.91233 102 92 71
-0.123252 -0.0239778 1.90938 191 182 164
-0.160071 0.0354613 1.91094 154 132 96
-0.157862 0.0507539 1.91012 20 17 12
-0.15758 0.0378278 1.90834 140 119 88
-0.155732 0.044203 1.90698 41 37 30
-0.152673 0.0488166 1.90447 123 110 90
-0.1508 0.034204 1.90397 57 47 29
-0.151941 0.0384292 1.90388 137 119 83
-0.149489 0.0430116 1.90131 117 103 76
-0.14682 0.0521693 1.90023 92 85 66
-0.140139 0.0151905 1.89942 61 56 43
-0.140541 0.0299531 1.89629 59 51 35
-0.139619 0.0543486 1.89473 73 66 49
-0.127823 0.0253209 1.89112 107 100 82
-0.133494 0.043666 1.88804 65 59 45
-0.126632 0.0568905 1.88344 80 75 58
-0.125352 0.0353026 1.87984 58 50 33
-0.0487863 0.0238693 1.81341 54 48 31
-0.0202076 0.0691186 1.79427 158 166 166
-0.0214209 0.0534767 1.78828 158 167 167
-0.174704 0.0556968 1.93221 4 4 4
-0.161841 0.0187754 1.92223 74 65 43
-0.0845372 -0.125687 1.89257 184 169 148
-0.0834193 -0.124475 1.89705 204 196 182
-0.057744 -0.100915 1.90448 203 193 178
-0.0244164 0.0271728 1.80381 91 91 77
-0.0145104 0.0316045 1.78933 182 164 135
-0.0255747 -0.0893194 1.87868 130 121 102
-0.00712695 0.0318969 1.79553 184 167 139
-0.00295632 -0.0247495 1.79981 60 55 41
-0.0022252 -0.0143871 1.80096 23 24 18
-0.000190421 -0.0544194 1.81506 146 132 110
0.00169681 -0.0453568 1.80911 187 176 151
0.0063623 -0.00947213 1.8109 41 44 39
0.00754224 0.0339035 1.80354 128 112 85
0.00361261 -0.0638261 1.84653 114 101 78
0.0115771 -0.0251044 1.81608 23 26 23
0.0163116 -0.0232062 1.81509 162 149 126
0.020259 0.0657291 1.82531 57 52 43
0.0278874 -0.0414628 1.83472 41 35 24
0.0287423 -0.0353569 1.83296 56 49 34
0.0294881 -0.0434229 1.83935 164 151 125
0.0329192 0.0253081 1.84044 66 67 59
0.0351123 -0.0276809 1.84146 100 88 68
0.035648 0.0344177 1.83453 75 66 50
0.0432117 0.0268779 1.84997 108 89 64
0.0464987 0.0270337 1.85963 112 91 60
-0.104616 -0.0221728 1.88427 180 171 152
-0.0873524 -0.0580921 1.88775 203 197 184
-0.067717 -0.0946014 1.90282 124 116 97
-0.00028154 -0.0401187 1.81477 120 108 86
0.0199018 -0.0247388 1.82521 39 39 31
-0.0689281 0.0672714 1.83367 47 48 48
-0.15649 0.029679 1.90865 155 137 105
-0.148734 0.0348809 1.90086 97 83 59
-0.14432 0.0388968 1.8963 132 113 77
-0.141251 0.0423786 1.89325 60 55 42
-0.13841 0.0298423 1.89233 182 164 129
-0.140231 0.00234778 1.90369 185 170 145
-0.127539 0.0478931 1.87987 48 43 33
-0.111853 0.0344849 1.86639 146 126 90
-0.098219 0.0515641 1.85307 107 97 76
-0.0723558 0.0293345 1.82719 148 129 90
-0.168997 0.0385612 1.91876 61 55 44
-0.167812 0.0299373 1.91851 153 137 113
-0.15118 0.0326392 1.90349 156 136 97
-0.144342 0.0389483 1.89636 132 113 77
-0.141407 0.0459797 1.89344 152 138 112
-0.141369 0.00670115 1.90573 201 189 164
-0.13328 0.0325301 1.88758 164 144 105
-0.130294 0.0334342 1.88436 55 44 26
-0.129702 0.0443488 1.88286 69 63 49
-0.12636 0.0382851 1.88002 133 108 71
-0.119752 0.0319426 1.87459 84 72 45
-0.115834 0.0316906 1.87123 87 71 46
-0.106183 0.0342687 1.86132 147 124 86
-0.102593 0.0390633 1.85727 71 65 47
-0.100015 0.0362925 1.85491 84 72 45
-0.088955 0.0408607 1.84303 56 50 37
-0.0836744 0.0479626 1.83718 125 113 92
-0.0708609 0.038275 1.82376 55 49 34
-0.0676086 0.0361023 1.82009 103 95 75
-0.173794 0.0468653 1.92378 58 52 39
-0.172192 0.0377149 1.92269 65 60 47
-0.11789 -0.0597036 1.91947 54 50 40
-0.096898 -0.0119554 1.88295 126 123 107
-0.0835953 -0.00484629 1.85221 120 106 81
-0.082869 0.00174273 1.84985 129 118 93
-0.174298 0.0426357 1.92437 64 57 46
-0.13705 -0.0150248 1.92586 183 172 151
-0.12118 -0.0596458 1.92461 105 106 95
-0.0868182 -0.0132181 1.86138 185 173 152
-0.0826611 -0.0031314 1.8499 116 101 75
-0.0800295 -0.0162183 1.85064 128 113 88
-0.0806322 -0.00104009 1.84586 163 151 125
-0.119949 -0.0646843 1.92049 66 61 48
-0.180138 0.0414922 1.93235 140 121 96
-0.17914 0.0483697 1.92989 91 77 55
-0.178535 0.0322437 1.93035 59 50 38
-0.126321 -0.0509519 1.94691 71 70 61
-0.12473 -0.0750925 1.94069 83 79 65
-0.122948 -0.0560698 1.93441 43 40 31
-0.12075 -0.0778764 1.92745 98 99 88
-0.118042 -0.0597022 1.91952 51 48 38
-0.100417 -0.114544 1.90371 64 55 36
-0.0970111 -0.0119602 1.88299 125 124 107
-0.0857102 -0.0194333 1.86238 147 135 116
-0.0874251 0.0671383 1.85314 158 167 167
-0.179653 0.0368155 1.93115 44 37 27
-0.14535 -0.00833075 1.9498 67 62 49
-0.141192 -0.0127445 1.9367 156 140 117
-0.124932 -0.0555767 1.94212 39 36 26
-0.123024 -0.0752052 1.93517 101 101 89
-0.123258 -0.0626411 1.92794 31 27 18
-0.1221 -0.057886 1.92856 107 111 101
-0.0833608 -0.0345127 1.8729 150 135 111
-0.0807826 0.0149517 1.8367 112 100 77
-0.180792 0.0344264 1.936 155 139 117
-0.133744 -0.117428 1.93318 82 83 69
-0.127104 -0.0379111 1.92692 87 88 80
-0.0896802 -0.00632519 1.86327 144 130 106
-0.0814157 -0.000651903 1.84743 78 68 51
-0.182345 0.0497826 1.94205 91 82 67
-0.182252 0.0430316 1.93697 183 161 130
-0.152612 0.00532912 1.9665 92 82 66
-0.180272 0.0298024 1.93385 54 45 33
-0.181291 0.0433189 1.93277 33 30 23
-0.179472 0.0355053 1.93019 151 132 105
-0.171585 0.0122735 1.93045 167 150 129
-0.146938 -0.00706172 1.95556 104 99 81
-0.126837 -0.0509206 1.94706 67 66 57
-0.126917 -0.0606536 1.94046 91 91 77
-0.13832 -0.0154339 1.92766 109 99 80
-0.125194 -0.0750526 1.94084 81 77 62
-0.123706 -0.055743 1.93701 50 45 34
-0.121684 -0.05711 1.92722 50 47 37
-0.124204 -0.128119 1.92387 53 47 36
-0.0857316 -0.0194343 1.86239 139 126 105
-0.0592235 -0.0618546 1.86987 157 142 116
-0.0574911 -0.0577671 1.85793 162 148 128
-0.180899 0.0368208 1.94421 63 54 42
-0.180252 0.0269837 1.94376 58 54 46
-0.181873 0.0390156 1.94019 156 136 112
-0.181387 0.032249 1.93898 38 35 31
-0.181256 0.0485423 1.93268 94 78 57
-0.145924 -0.00834978 1.94997 64 58 44
-0.142122 -0.0111215 1.93804 93 87 71
-0.129383 -0.0652205 1.94722 110 114 102
-0.141508 -0.0140537 1.93442 156 141 120
-0.126406 -0.0573547 1.94588 99 101 92
-0.123264 -0.0751801 1.93525 99 99 87
-0.123669 -0.0576858 1.93429 86 83 69
-0.12404 -0.0626132 1.92819 26 23 17
-0.12169 -0.077334 1.92992 94 94 82
-0.126601 -0.0353944 1.9252 80 77 66
-0.124054 -0.131544 1.92344 95 88 72
-0.0863609 -0.0220549 1.86869 102 89 69
-0.0896733 -0.00631548 1.86326 144 130 106
-0.0811889 -5.16924e-05 1.84809 88 81 64
-0.0807828 0.0149512 1.8367 113 99 76
-0.178073 0.0270467 1.95312 128 111 90
-0.182581 0.0454778 1.94705 102 86 69
-0.182868 0.0468549 1.94307 40 38 31
-0.181242 0.0316251 1.94317 47 41 34
-0.180807 0.026756 1.94064 162 141 115
-0.181604 0.0359011 1.93972 34 31 25
-0.1829 0.0430089 1.93719 185 165 134
-0.181253 0.0337909 1.93475 123 103 80
-0.147304 -0.00708087 1.95567 106 101 85
-0.181111 0.052448 1.93365 68 59 42
-0.181999 0.0432805 1.93301 34 30 24
-0.180135 0.035484 1.93042 151 131 105
-0.172557 0.0142096 1.93238 149 127 102
-0.129182 -0.05591 1.95209 74 71 60
-0.135899 -0.114275 1.93884 170 161 142
-0.137763 -0.0208121 1.93693 106 93 75
-0.127071 -0.0606546 1.94051 88 88 75
-0.125461 -0.0750364 1.94092 82 78 63
-0.13409 -0.117354 1.93329 83 84 69
-0.127407 -0.0624282 1.93627 90 91 83
-0.138703 -0.0154497 1.92778 117 107 88
-0.125857 -0.0383557 1.9255 72 70 61
-0.121972 -0.0571089 1.92731 52 49 40
-0.124646 -0.0427082 1.92466 74 74 67
-0.0833999 -0.0344837 1.87292 149 135 109
-0.0884329 -0.013252 1.87043 153 139 114
-0.0573087 -0.0577871 1.85786 161 147 127
-0.0796759 0.00734008 1.84284 161 141 108
-0.140634 0.00480054 1.99245 202 185 160
-0.179231 0.0517559 1.95462 92 79 60
-0.179095 0.0262647 1.94989 106 93 78
-0.181933 0.0407955 1.94838 93 79 64
-0.182621 0.0534784 1.94788 4 3 2
-0.180111 0.0330433 1.94867 32 28 23
-0.181749 0.0356047 1.94538 62 55 43
-0.180975 0.0255322 1.94491 172 154 130
-0.183435 0.0496978 1.94241 95 84 68
-0.181831 0.0294654 1.93957 160 134 102
-0.180756 0.0253325 1.93951 108 91 70
-0.147144 -0.00867618 1.95256 65 58 45
-0.182612 0.0383532 1.93667 120 100 77
-0.181129 0.0319197 1.93362 143 126 105
-0.172289 0.016565 1.93576 84 73 57
-0.171871 0.0100951 1.93586 156 137 112
-0.132036 -0.0599167 1.95245 88 84 68
-0.180705 0.0525647 1.93143 86 79 61
-0.172533 0.0122589 1.93077 165 146 125
-0.129824 -0.0651942 1.94735 108 111 100
-0.127271 -0.0509207 1.94719 65 62 54
-0.126839 -0.0573366 1.94601 95 99 91
-0.142645 -0.0111277 1.9382 96 89 72
-0.135347 -0.116671 1.9388 135 126 112
-0.125732 -0.0555807 1.94236 40 36 26
-0.142065 -0.0140655 1.93459 147 133 113
-0.12454 -0.0568676 1.93727 89 88 77
-0.122616 -0.0763594 1.93195 100 101 91
-0.124694 -0.0625771 1.9284 26 23 16
-0.125177 -0.128659 1.92629 187 175 153
-0.121413 -0.0572936 1.92612 51 45 32
-0.131642 -0.0265355 1.91759 124 112 95
-0.0847517 -0.0303331 1.87196 149 132 103
-0.0872492 -0.0193931 1.86936 137 118 90
-0.0858458 -0.0194318 1.86243 149 137 118
-0.0589996 -0.0618753 1.86979 158 144 118
-0.141679 0.00528994 1.99084 144 125 103
-0.162791 0.0514895 1.97477 70 67 58
-0.166845 0.0281377 1.97293 74 57 41
-0.160279 -0.00130875 1.97112 123 108 89
-0.158195 0.00376701 1.97156 91 79 56
-0.174344 0.0297556 1.96168 145 128 110
-0.153943 0.00530577 1.96687 92 82 67
-0.180268 0.0421986 1.95623 151 125 95
-0.181319 0.0472866 1.95561 82 64 43
-0.180233 0.0516764 1.95493 90 78 59
-0.178753 0.0250754 1.95504 163 139 110
