ply
format ascii 1.0
element vertex 1265
property float x
property float y
property float z
property uchar red
property uchar green
property uchar blue
end_header
0.250678 0.271787 1.97402 42 44 44
0.2386 0.2441 1.99962 42 44 44
0.237912 0.0874472 2.00384 29 29 31
0.236708 0.276304 2.00613 53 57 58
0.234507 0.258635 2.00924 44 46 47
0.230065 0.279528 2.01926 67 74 77
0.22917 0.247154 2.02162 42 42 42
0.225945 0.273759 2.02634 40 39 36
0.222005 0.267656 2.03483 41 44 44
0.217223 0.261362 2.04482 93 104 111
0.180957 0.0275425 1.98165 175 170 161
0.211969 0.248944 2.05922 54 55 56
0.176151 0.0294043 1.99123 192 191 191
0.163686 -0.02444 2.01128 50 53 58
0.147704 -0.0603082 2.0452 134 129 129
0.1464 0.00297232 2.07725 94 96 99
0.143749 -0.065363 2.08307 151 146 144
0.140398 -0.0610917 2.10153 54 55 56
0.131787 -0.105212 2.11696 64 58 57
0.164858 0.280829 2.17578 56 61 64
0.120657 -0.0997579 2.13616 129 125 124
0.117705 0.00209502 2.14588 24 27 34
0.122029 -0.208303 2.21827 69 73 74
0.116241 -0.260664 2.22398 105 101 99
-0.0206178 0.178914 1.97501 157 167 168
0.127052 -0.020487 2.27236 114 110 108
0.108981 0.0495471 2.24738 35 35 37
0.11383 -0.191779 2.27007 74 76 80
0.102703 -0.161204 2.26571 12 13 13
0.0965457 -0.134304 2.28095 26 23 25
0.0956996 -0.0931938 2.28237 35 35 41
0.0864515 -0.143658 2.29019 16 16 19
0.0851508 -0.167938 2.29226 32 36 42
0.099452 -0.0202498 2.31745 110 110 109
0.085506 -0.033346 2.33023 64 60 56
0.055861 -0.135737 2.31161 26 26 28
0.0662873 -0.046934 2.34608 63 63 62
0.0529354 -0.0686792 2.35696 49 52 52
0.0423933 -0.0632765 2.37067 137 132 129
0.0109978 0.203526 2.34429 44 37 36
-0.0512453 -0.361078 2.29312 127 121 115
-0.0652295 -0.255448 2.31275 70 74 78
0.00200575 -0.0391073 2.41003 34 35 36
-0.085072 -0.322731 2.31351 71 67 65
-0.0230776 -0.0853855 2.42888 142 135 128
0.100646 -0.336019 2.24656 109 109 112
0.0974393 -0.347835 2.24731 71 68 68
0.0637902 -0.0973928 2.29408 71 78 85
0.00256143 -0.0197063 2.38869 97 104 111
-0.0116029 -0.0995301 2.39693 122 118 114
0.157013 -0.0202995 1.99796 104 103 103
0.140588 -0.0610422 2.03079 134 129 129
0.135349 -0.0706594 2.071 59 60 62
0.114012 -0.0692788 2.21768 48 49 51
0.10853 -0.0861787 2.2268 30 36 47
0.0960389 -0.0614266 2.26378 27 32 41
0.0915794 -0.0786809 2.26413 92 98 103
0.0882935 -0.0268514 2.30714 142 140 138
-0.022867 -0.0897785 2.40504 155 148 141
0.108363 -0.00835437 2.11913 29 32 38
0.106097 0.00149419 2.1241 24 27 34
0.0694136 0.253525 2.37303 112 121 130
0.0367499 0.261223 2.36305 47 59 71
-0.0133158 0.283077 2.34652 100 112 118
0.0516599 -0.297347 2.29279 124 126 130
0.00863907 -0.290385 2.31427 88 91 94
0.20265 0.0671772 2.0739 96 92 93
0.166414 0.222225 2.12017 31 36 37
0.106408 0.091703 2.2652 78 86 93
0.0475947 0.276404 2.36411 105 119 133
0.0552926 -0.251156 2.30008 47 54 62
0.0288016 -0.183218 2.30587 29 30 30
-0.00368435 0.033646 2.38713 58 69 84
-0.0114862 0.0619314 2.37681 21 23 29
-0.0164421 0.129894 2.35224 85 97 109
-0.0212089 0.0734854 2.37126 21 19 20
-0.0243306 0.0518228 2.37813 24 24 28
-0.030597 0.11332 2.35561 85 95 107
-0.0570873 -0.355852 2.28495 158 148 136
-0.0944435 0.284491 2.32202 38 43 48
0.193573 0.313176 2.05185 157 167 168
0.188819 0.211574 2.09994 105 101 95
0.182654 0.200787 2.09283 28 38 52
0.163697 0.0533647 2.06528 25 26 27
0.148133 0.00774701 2.02445 102 101 100
0.167898 0.206472 2.11643 96 94 88
0.142101 0.00274177 2.06869 94 96 99
0.151516 0.223054 2.13075 35 42 48
0.130874 0.212818 2.10466 10 12 12
0.154249 -0.0462526 2.20547 50 51 53
0.124055 -0.0867806 2.13426 144 137 134
0.122605 0.241457 2.22794 44 56 69
0.109133 -0.280695 2.22662 23 24 26
0.120444 0.0821134 2.26559 104 111 113
0.0874651 -0.335093 2.19891 58 56 54
0.11682 0.24788 2.30556 74 78 82
0.0858377 -0.0108888 2.31296 45 50 53
0.0808701 -0.0519294 2.30956 165 157 153
0.0485163 -0.396572 2.26836 60 68 73
-0.0537907 0.234528 2.01601 14 14 13
0.0776756 -0.0225213 2.3316 38 41 42
0.0527319 -0.280919 2.30092 84 90 98
0.0547769 -0.0765016 2.32404 134 121 102
-0.00834854 -0.255764 2.18722 85 88 92
0.0275562 -0.38933 2.29139 31 35 37
0.00398039 -0.422675 2.24369 183 179 173
0.0326843 -0.211215 2.31142 152 151 153
0.0169895 -0.374116 2.28603 119 115 107
0.0204778 -0.351567 2.30689 139 137 132
0.0426693 -0.0478744 2.35467 39 42 44
0.0540128 0.274743 2.37821 105 119 133
-0.000720006 -0.353849 2.28998 45 54 60
0.0112017 -0.300371 2.3228 47 50 52
0.006277 -0.179928 2.31657 34 39 44
-0.00770615 -0.336655 2.30705 171 168 164
0.0253244 0.284386 2.36872 86 99 109
0.00531824 0.210429 2.34482 75 83 92
-0.0220367 -0.30983 2.31461 22 26 28
0.0158272 0.0108118 2.38913 155 150 148
0.00422791 0.131413 2.36716 26 29 39
-0.027137 -0.153694 2.31788 64 71 80
0.0135197 0.034729 2.40275 55 62 71
-0.0417545 -0.339249 2.30258 22 25 26
-0.0182592 0.190989 2.33896 71 77 87
-0.0218314 0.244124 2.3487 42 53 70
-0.0434646 0.196118 2.32217 93 109 122
-0.0999994 -0.185931 2.21948 143 166 183
-0.0995755 -0.185126 2.23531 143 166 183
-0.0324155 0.115672 2.36258 44 46 51
-0.0198979 0.0190304 2.39813 27 33 43
-0.0717604 -0.286121 2.30815 35 40 43
-0.036434 0.0965318 2.36926 34 33 38
-0.0488653 0.252084 2.34413 100 115 128
-0.0333859 0.058231 2.38323 37 36 40
-0.0365397 0.0741274 2.3776 44 45 48
-0.0412191 0.0655208 2.37922 41 41 45
-0.0651146 0.242009 2.32794 13 19 26
-0.0627815 0.266974 2.34135 62 65 70
-0.114148 -0.186843 2.25423 143 166 183
-0.0449396 0.00968568 2.39229 30 33 41
-0.0756754 0.226943 2.32996 81 96 109
-0.0783813 0.213811 2.32957 35 40 45
-0.0759319 0.287807 2.33736 46 53 59
-0.0324363 -0.0850715 2.43268 66 67 64
-0.0992838 -0.328254 2.31293 107 104 99
-0.0413223 -0.0808397 2.43576 34 39 39
-0.121131 -0.243825 2.30769 55 63 74
-0.131764 0.206994 2.27654 41 49 56
-0.144699 0.21463 2.29195 93 91 89
-0.174644 0.234411 2.28322 30 35 41
-0.192317 0.232612 2.28104 157 167 169
-0.206811 0.268811 2.29592 41 47 55
-0.162535 0.219548 2.29131 163 162 165
0.14974 0.232712 2.11347 32 37 42
-0.240665 0.286135 2.23367 48 57 66
0.0521255 0.262893 2.37043 95 109 122
0.194365 0.0837796 2.08393 106 103 103
0.179098 0.218685 2.12442 140 140 139
0.167988 0.0655581 2.07946 36 36 36
0.0308562 -0.333225 2.29872 70 75 80
-0.0174393 0.0586311 2.37995 19 18 20
-0.0490789 0.0907328 2.36143 41 44 48
0.238699 0.237484 1.93139 187 180 175
0.208273 0.161309 1.97132 32 30 28
0.176812 0.24064 2.07845 28 27 22
0.156674 0.0537841 2.04481 28 29 29
0.141298 0.0072988 2.00458 102 100 100
0.15768 0.199604 2.08174 16 20 26
0.124952 -0.0180387 2.02053 91 92 95
0.143716 0.224635 2.10903 35 42 47
0.153076 0.248434 2.15239 63 64 67
0.127969 -0.0380913 2.05029 32 32 33
0.136402 0.223167 2.10193 35 43 48
0.144835 0.258808 2.1447 55 58 61
0.123886 0.227701 2.08991 68 77 87
0.104247 -0.265026 2.19612 100 97 95
0.0989213 -0.30529 2.19505 90 85 85
0.107281 -0.212548 2.22864 55 62 66
0.102214 -0.227315 2.24082 99 102 105
0.0948857 -0.29049 2.21823 99 98 97
0.101624 0.0918091 2.25338 77 84 92
0.0929109 -0.146509 2.22739 17 18 20
0.0989308 -0.0388236 2.25238 86 85 87
0.0960846 -0.239611 2.25253 97 95 93
0.0947317 -0.256965 2.24786 107 102 97
0.0913938 -0.272423 2.24249 123 119 118
0.0923075 -0.226503 2.25554 71 77 80
0.0889656 -0.0858729 2.24705 41 41 47
0.0885637 -0.135745 2.24794 75 84 94
0.0895898 -0.249858 2.25709 96 97 98
0.0831582 -0.0953908 2.25423 34 34 39
0.0799433 -0.105845 2.25749 83 92 102
0.0784623 -0.302343 2.26131 96 95 93
0.0870277 -0.0215036 2.28962 117 115 115
0.0774913 -0.0844826 2.25838 42 41 47
0.0774086 -0.144437 2.26121 73 81 94
0.0763223 -0.0683907 2.26016 91 100 110
0.0727685 -0.295241 2.26773 67 77 84
0.0728286 -0.171081 2.26502 34 38 44
0.072385 -0.263997 2.26721 20 22 24
0.0736109 -0.119018 2.26853 74 80 92
0.0689322 -0.0869379 2.26292 83 91 100
0.0590381 -0.378674 2.2388 21 25 29
0.0748576 -0.0122037 2.2871 41 44 46
0.066576 -0.0635099 2.27404 38 43 54
0.0645161 -0.143634 2.26932 22 23 28
0.0641286 -0.122766 2.26816 62 69 78
0.0731145 -0.0346885 2.30302 65 64 65
0.0479999 -0.395371 2.23382 148 135 103
0.060128 -0.0863879 2.2719 31 34 41
0.0403589 -0.418803 2.21452 148 146 146
0.0584746 -0.309092 2.27798 134 131 130
0.0510773 -0.344271 2.25449 127 125 124
0.0605711 -0.262313 2.28783 36 39 42
0.0679799 -0.0237641 2.30919 38 40 42
0.058832 -0.0637003 2.28994 148 139 128
0.0537634 -0.246986 2.28498 38 43 48
0.0530592 -0.284933 2.28604 119 120 123
0.0518607 -0.109255 2.28522 88 93 103
0.0478714 -0.268005 2.28214 118 120 124
0.0463704 -0.29955 2.28071 124 126 129
0.0485727 -0.257249 2.28807 68 73 79
0.0451205 -0.278231 2.28093 103 104 108
0.073293 0.25326 2.36407 59 71 82
0.0236822 -0.425623 2.21543 201 203 207
0.0399166 -0.387433 2.27758 155 144 126
0.070018 0.277474 2.36236 54 68 82
0.0431614 -0.139123 2.28446 28 30 32
0.0415186 -0.240741 2.28595 128 124 122
0.0377929 -0.20781 2.2936 94 95 97
0.0598881 0.288205 2.35907 48 61 74
0.0345992 -0.127152 2.28536 21 23 26
0.011607 -0.424948 2.22106 70 71 71
0.0433615 -0.0613911 2.32703 122 122 121
0.0294064 -0.135629 2.2904 62 72 83
0.051751 0.252237 2.3568 62 74 85
0.0229524 -0.341454 2.28433 88 88 89
0.0199816 -0.355831 2.27871 111 103 90
0.0370022 -0.0689245 2.33294 40 44 46
0.0205709 -0.219468 2.28809 144 144 148
-0.0132197 -0.258216 2.17625 32 36 41
0.0200587 -0.145331 2.29148 20 23 24
0.0312525 -0.0487988 2.32959 38 41 42
0.0147528 -0.3481 2.28593 41 46 47
0.0083302 -0.372893 2.26571 14 15 16
0.0171929 -0.15875 2.28867 21 23 24
0.00771996 -0.384852 2.26586 15 18 19
0.0297237 -0.0847902 2.34041 115 111 107
0.0354917 0.252273 2.35277 66 76 88
0.0102418 -0.321902 2.29082 112 109 95
0.0339277 0.262235 2.35194 42 52 63
0.0123649 -0.202382 2.29573 125 128 133
0.00642701 -0.355004 2.28694 44 52 59
0.0264594 -0.063772 2.3483 38 41 44
-0.00746249 -0.385315 2.25184 80 79 73
-0.0720328 0.212828 2.0158 75 76 77
0.00367702 -0.195729 2.29461 46 54 61
0.00343039 -0.301261 2.30024 88 90 90
0.0194642 -0.0817645 2.34882 76 78 79
-0.010195 -0.358987 2.2695 42 49 54
0.0222281 0.0434578 2.36934 35 36 39
0.00921836 -0.109369 2.33239 171 165 162
0.00588584 0.1664 2.31315 157 166 167
-0.00437778 -0.182385 2.29364 35 41 46
-0.00216556 -0.286641 2.30513 25 28 31
0.0135031 -0.101816 2.35223 158 152 149
0.0133953 -0.0723106 2.35523 26 27 26
-0.00557018 -0.312449 2.30123 75 74 73
0.0121813 -0.0846203 2.35556 103 103 101
-0.0157892 -0.347721 2.27651 158 149 135
-0.00879199 -0.299918 2.30484 109 111 113
0.0134001 0.0481943 2.36721 46 52 60
0.0147817 0.0368243 2.37795 148 144 145
-0.0113672 -0.277998 2.30943 119 120 122
-0.019038 -0.328617 2.28925 131 131 125
-0.0185294 -0.284271 2.29956 96 100 105
-0.0209139 -0.31029 2.29483 114 115 116
-0.0284898 -0.346932 2.27676 96 92 85
0.00172348 -0.0764021 2.36659 35 39 42
0.000898743 -0.0874977 2.36664 45 51 55
-0.0288186 -0.328425 2.28346 22 26 28
-0.0220414 -0.255251 2.30525 45 53 61
-0.0240417 -0.160746 2.29565 39 43 47
0.00398535 0.0228444 2.38025 151 148 149
-0.0248284 -0.263549 2.29889 48 55 62
-0.00504835 -0.11542 2.36076 131 126 126
0.00241788 0.0339104 2.37973 55 62 71
-0.0102425 0.286507 2.33742 91 102 109
-0.038889 -0.3502 2.27766 137 132 132
-0.00268652 0.0107547 2.38206 148 147 149
-0.00647681 -0.028399 2.3719 88 96 103
-0.00611048 -0.0773605 2.37609 47 49 51
-0.0333536 -0.228655 2.29572 65 72 80
-0.0128949 0.094017 2.35465 31 30 32
-0.00968469 -0.0865339 2.37427 152 144 139
-0.042142 -0.324429 2.28296 29 33 37
-0.00886272 0.0334181 2.3765 58 70 85
-0.0399745 -0.256903 2.29042 138 138 138
-0.0374661 -0.155972 2.29645 65 74 83
-0.00890744 0.0188297 2.38006 44 53 67
-0.0181771 0.104719 2.35148 41 46 55
-0.00884482 -0.00840834 2.38511 139 138 141
-0.0291474 0.192457 2.3164 68 74 83
-0.0233808 0.126217 2.34184 22 26 36
-0.0150266 0.0480794 2.37064 25 27 34
-0.0165829 -0.113766 2.37143 167 162 159
-0.0163799 0.0619367 2.36679 23 26 33
-0.0447953 -0.203148 2.28773 62 70 78
-0.0471046 -0.274711 2.28427 20 22 24
-0.0476259 -0.24273 2.28855 125 126 128
-0.0166477 0.0266239 2.37629 28 32 39
-0.0539959 -0.344242 2.27736 23 25 26
-0.0325953 0.246084 2.32659 43 54 71
-0.0199999 -0.101069 2.37831 129 124 119
-0.0263033 0.0735035 2.36091 24 20 21
-0.0184653 -0.0555259 2.39354 57 65 73
-0.0429024 0.185451 2.31294 59 65 72
-0.0584048 -0.317674 2.28432 112 116 122
-0.0643323 -0.366479 2.26792 127 120 113
-0.022266 -0.0902154 2.38893 122 117 112
-0.0576006 -0.20491 2.28764 62 72 81
-0.029407 0.0517687 2.36788 25 25 30
-0.0280922 -0.110491 2.3788 156 150 145
-0.0418759 0.131389 2.33666 54 56 61
-0.0301645 0.0185658 2.37753 37 45 57
-0.0402937 0.0953432 2.35106 47 50 58
-0.0439218 0.116284 2.33937 43 45 50
-0.0359432 0.00533421 2.37799 61 72 88
-0.0747102 -0.362504 2.27462 157 152 147
-0.0505101 0.228272 2.33141 50 44 45
-0.0395718 0.0168209 2.37442 35 39 47
-0.0749148 -0.318962 2.28119 113 112 113
-0.0444233 0.0581479 2.36122 41 42 46
-0.04999 0.0985163 2.34664 87 99 111
-0.0480343 0.0742298 2.35469 42 42 45
-0.0349612 -0.0816102 2.40264 59 61 63
-0.0364685 -0.0935314 2.39943 103 95 89
-0.0774008 -0.272945 2.28573 37 40 42
-0.0407394 -0.108196 2.38938 78 76 75
-0.0609642 0.235987 2.32013 87 100 106
-0.0796563 -0.285239 2.28496 21 24 27
-0.0496156 0.0333392 2.36558 48 49 55
-0.0404562 -0.072815 2.40998 24 28 30
-0.0564859 0.0233028 2.36601 35 36 43
-0.0709187 0.221487 2.31784 80 95 109
-0.0563146 0.00897451 2.36998 35 39 47
-0.0437981 -0.0868456 2.41058 73 75 73
-0.0540573 -0.0376676 2.38331 78 87 95
-0.0586607 -0.0121941 2.37313 45 48 53
-0.073961 0.269443 2.31924 64 67 73
-0.0910629 -0.30057 2.29713 25 27 30
-0.0751978 0.0794177 2.34191 54 60 63
-0.0556873 -0.0888328 2.4055 155 151 149
-0.09755 -0.316598 2.29383 167 160 154
-0.0572118 -0.0816016 2.41366 161 164 169
-0.0870478 0.290359 2.31562 45 53 59
-0.0635824 -0.101755 2.40687 120 124 130
-0.106737 -0.30682 2.30629 71 69 68
-0.0685157 -0.092605 2.41033 36 41 46
-0.111771 -0.316566 2.30222 162 158 153
-0.140676 -0.26634 2.28278 136 161 180
-0.127391 0.289458 2.30519 47 56 66
-0.130241 0.254199 2.30364 44 50 57
-0.148863 -0.278834 2.28014 135 160 180
-0.155451 0.216275 2.27181 89 88 88
-0.174295 0.212306 2.26217 76 74 71
-0.171744 0.220672 2.27433 171 170 172
-0.219464 0.277039 2.27561 43 51 63
0.112996 0.248113 2.28855 66 69 72
0.100308 -0.233375 2.26181 104 102 99
0.0959174 -0.0621592 2.26068 37 41 49
0.0863211 -0.0711869 2.26818 41 46 55
0.0853847 -0.0455355 2.29693 163 157 155
0.0871456 -0.0268891 2.30521 143 141 140
0.0746325 -0.314351 2.27456 101 95 86
0.0743603 -0.0525202 2.29869 163 155 150
0.0711681 -0.0231384 2.3209 38 40 42
0.0606606 -0.288376 2.29771 123 123 124
0.0539671 -0.0561227 2.33166 85 83 81
0.0265785 -0.212538 2.30164 154 153 155
0.0350949 -0.0483651 2.34272 38 41 42
-0.0638446 0.218183 2.03015 98 101 106
0.00444472 -0.302376 2.31225 49 52 54
-0.000725535 -0.181129 2.30563 35 41 46
-0.0018682 0.21133 2.33379 75 84 92
-0.00338717 0.236098 2.33443 39 33 33
-0.00838557 0.24533 2.34091 32 36 48
-0.0253711 0.191755 2.32822 68 74 83
-0.00885385 0.0285726 2.38803 60 71 87
-0.042277 -0.219911 2.30215 31 35 38
-0.0497011 -0.341729 2.29056 23 25 26
-0.0288549 0.245138 2.33818 43 54 71
-0.0266008 0.0187844 2.38835 37 45 57
-0.0386909 0.121772 2.35122 49 50 54
-0.0303765 -0.00351645 2.39314 70 82 99
-0.0405665 0.0581637 2.37277 41 42 46
-0.0440093 0.0741976 2.36672 42 42 45
-0.0562212 0.25317 2.33333 100 114 128
-0.0785222 -0.287923 2.2982 31 35 38
-0.0523161 0.00935063 2.3817 35 39 47
-0.0398244 -0.0859549 2.42221 73 75 73
-0.0700057 0.268235 2.33084 64 67 73
-0.0827337 0.227886 2.31973 81 96 109
-0.0855237 0.21463 2.31923 35 40 44
-0.105999 -0.330257 2.30328 113 111 107
-0.151529 0.215429 2.28236 89 88 88
0.176715 0.222297 2.1169 36 39 38
0.0556257 -0.278688 2.29435 38 45 51
0.0314151 -0.39329 2.28531 134 134 136
0.000100838 -0.425071 2.23408 190 190 187
-0.0621906 0.0417987 2.34936 56 64 74
0.194791 0.0838619 2.07445 111 108 107
0.191002 0.0660035 2.07155 55 52 51
0.0540005 0.26126 2.36576 52 64 75
0.0826544 -0.0837829 2.2683 46 47 53
-0.0453494 -0.0377865 2.39425 81 90 101
-0.0791225 0.0167627 2.36424 35 39 41
0.202562 0.0672135 2.07433 96 92 93
0.195149 0.0838095 2.08003 106 103 103
0.18003 0.21901 2.11972 140 140 139
0.164684 0.208555 2.10717 68 66 60
0.106782 0.0917331 2.2631 78 86 93
0.0922403 -0.0212445 2.2987 106 105 105
0.0941102 -0.0716477 2.26122 56 56 61
0.0826626 -0.143333 2.27137 78 88 101
0.0781798 -0.293325 2.27838 65 76 83
0.0829089 -0.356524 2.24562 101 100 101
0.074152 -0.0861903 2.27221 82 90 99
0.063076 -0.262764 2.29908 38 43 49
0.062896 -0.28862 2.29601 125 125 126
0.065389 -0.0858977 2.28132 32 36 44
0.0576471 -0.305853 2.2918 145 143 144
0.0540669 -0.26528 2.29442 115 117 121
0.0484766 -0.380828 2.2869 108 106 104
0.0317679 -0.334355 2.29247 70 75 80
0.0106611 -0.0608801 2.37395 27 27 27
0.00691939 -0.0868526 2.37569 43 49 53
0.0067164 -0.324444 2.30224 95 92 82
0.0129955 -0.422095 2.23416 47 51 53
0.000443908 -0.276181 2.31661 98 99 100
-0.0111001 0.0268477 2.38306 26 29 35
0.00285343 -0.420611 2.23433 30 36 37
-0.0277461 -0.10117 2.39613 183 174 166
-0.01045 -0.423614 2.23514 185 185 185
-0.0402501 -0.315499 2.29305 27 31 34
-0.041542 -0.404928 2.22816 131 140 149
-0.0431761 -0.393887 2.22737 66 68 68
-0.0572797 -0.312117 2.29331 122 124 128
-0.0672714 -0.3574 2.28672 62 62 57
-0.084415 -0.342683 2.28577 150 148 147
-0.106317 -0.331964 2.30198 154 156 158
-0.10962 0.289929 2.31447 53 64 74
-0.215598 0.288049 2.28324 157 167 167
0.271256 0.277622 1.91017 58 63 67
0.266355 0.248079 1.91048 50 56 62
0.263904 0.238653 1.91876 185 180 179
0.252756 0.263105 1.90499 67 71 75
0.250806 0.257958 1.95337 99 103 107
0.244471 0.272363 1.96739 48 51 50
0.244078 0.261781 1.96802 45 49 52
0.243129 0.235882 1.95865 187 181 177
0.241205 0.279233 1.977 63 66 66
0.23439 0.246815 1.989 86 94 99
0.231348 0.120269 2.05573 94 94 97
0.224703 0.242538 2.01266 94 101 101
0.221933 0.2702 2.02841 66 69 68
0.219873 0.2741 2.02123 40 39 36
0.216547 0.279632 2.02893 69 74 73
0.21559 0.261799 2.03182 84 94 99
0.211891 0.279906 2.03902 66 72 72
0.212903 0.0632154 2.07767 161 152 149
0.210209 0.27197 2.04341 113 124 129
0.208043 0.0683248 2.08455 98 92 92
0.206163 0.249295 2.05488 63 67 69
0.206393 0.116265 2.08565 38 39 40
0.201881 0.280816 2.06901 103 112 116
0.200731 0.30159 2.08221 158 167 168
0.196921 0.28099 2.07966 99 108 114
0.195916 0.0837225 2.09201 107 104 104
0.195803 0.22337 2.1157 21 24 26
0.192143 0.0659927 2.08897 56 52 50
0.177468 0.0316696 1.97488 86 80 78
0.18665 0.211091 2.1033 103 100 96
0.184023 0.237166 2.1147 31 30 25
0.18398 0.216947 2.13121 32 34 35
0.171378 0.0230801 1.98062 86 81 80
0.180213 0.22706 2.13568 118 119 119
0.169666 0.0655896 2.08773 33 33 33
0.159864 0.00694217 1.99382 27 28 29
0.158036 -0.0199309 2.00864 101 100 101
0.168715 0.239554 2.13101 22 25 28
0.169491 0.280666 2.14533 67 71 72
0.16752 0.221362 2.13392 31 35 36
0.165724 0.207373 2.12059 74 73 68
0.168208 0.270121 2.15359 56 60 63
0.16228 0.279045 2.16936 53 58 61
0.155458 0.218013 2.13436 20 23 22
0.158945 0.246059 2.17957 62 63 64
0.153885 0.207742 2.12312 170 165 162
0.152682 0.268788 2.18431 66 73 76
0.153419 0.282238 2.1982 58 63 66
0.145267 0.21439 2.13062 171 170 169
0.14125 0.221944 2.12411 31 39 45
0.142547 0.27476 2.22533 46 51 53
0.127345 -0.111944 2.10981 67 66 67
0.129669 0.225964 2.11587 66 78 88
0.13619 0.269264 2.24688 112 118 123
0.12337 -0.0648359 2.14848 71 77 83
0.13486 0.256128 2.2483 91 95 97
0.119018 0.225911 2.12473 7 10 14
0.131104 0.270885 2.2601 102 105 104
0.115555 -0.106444 2.12964 128 123 123
0.121638 -0.304148 2.21478 135 126 116
0.128396 0.263007 2.2686 104 107 109
0.124629 0.079277 2.25248 113 108 108
0.120986 0.0515207 2.23933 73 72 78
0.123697 0.253815 2.28193 84 88 90
0.109253 -0.346917 2.18142 130 156 177
0.108659 -0.354485 2.18647 130 154 174
0.115068 0.0420195 2.23467 32 34 39
0.116632 0.0828737 2.26588 95 101 104
0.109357 -0.27457 2.23393 28 31 33
0.11908 0.244726 2.29333 184 180 179
0.112285 -0.216952 2.26525 82 86 90
0.105961 -0.300403 2.22383 90 85 84
0.116778 0.246616 2.30377 67 70 73
0.109171 -0.0659362 2.25655 36 43 55
0.116055 0.26104 2.30327 43 46 47
0.115941 0.281229 2.302 114 121 124
0.108667 -0.0571452 2.26239 93 102 110
0.109817 -0.0268289 2.28721 101 95 95
0.106856 -0.229805 2.27284 104 104 104
0.104352 -0.279346 2.25327 66 64 63
0.105777 -0.25004 2.27061 27 31 34
0.108903 0.0914513 2.28251 73 80 87
0.106161 -0.0374679 2.28119 87 87 90
0.104681 -0.0520726 2.2721 46 50 55
0.102006 -0.277684 2.27229 85 85 86
0.111088 0.266826 2.32093 102 111 117
0.109534 0.248854 2.32446 64 69 72
0.100193 -0.0610988 2.27756 35 39 47
0.0954942 -0.342176 2.26017 38 42 46
0.0961925 -0.0838762 2.2754 39 38 44
0.0957949 -0.13325 2.27628 76 85 95
0.096212 -0.0704804 2.27952 53 54 60
0.0830029 -0.385876 2.19855 127 154 176
0.0917106 -0.127483 2.28145 72 75 82
0.090495 -0.0933166 2.28262 36 37 44
0.0900825 -0.0788385 2.28241 51 51 57
0.0945765 -0.0203867 2.31855 108 108 108
0.100103 0.251736 2.35397 46 52 54
0.0849409 -0.35329 2.26268 101 101 104
0.0872463 -0.103501 2.28554 82 91 101
0.0890991 -0.0390529 2.31768 109 103 100
0.0848702 -0.141663 2.28969 80 89 102
0.0853713 -0.12549 2.29517 42 48 57
0.0965699 0.273203 2.36882 123 128 132
0.0843862 -0.0665831 2.2909 93 103 112
0.0947261 0.250348 2.38587 59 66 70
0.0791544 -0.31123 2.29162 98 93 86
0.082763 -0.0118063 2.31681 45 49 52
0.0928492 0.281575 2.38187 53 59 63
0.0838629 -0.0312755 2.32727 129 126 124
0.0765645 -0.084897 2.2916 83 91 100
0.0752687 -0.107606 2.29289 24 25 28
0.0693084 -0.369329 2.26684 91 91 90
0.0892037 0.273437 2.39332 65 74 80
0.0891731 0.28482 2.39286 55 62 66
0.0879693 0.263011 2.3932 116 125 134
0.0875373 0.250425 2.39434 134 136 140
0.0717763 -0.120283 2.29659 68 76 85
0.0756873 -0.0229929 2.3375 38 41 43
0.0678433 -0.0844683 2.30034 32 35 42
0.0606442 -0.38913 2.26229 154 148 141
0.0624409 -0.339055 2.27899 126 124 122
0.0626933 -0.328699 2.28777 144 141 140
0.065587 -0.259904 2.31824 40 45 52
0.0569014 -0.396916 2.25986 171 166 159
0.0655204 -0.0664912 2.31128 27 33 39
0.0640113 -0.0966331 2.30319 66 72 79
0.0780659 0.27447 2.39127 53 66 80
0.0765733 0.284965 2.39038 44 55 65
0.0513261 -0.40601 2.24311 118 116 113
0.0748935 0.251879 2.39065 114 124 132
0.0476059 -0.417519 2.23694 188 184 181
0.0545551 -0.348739 2.28595 16 18 19
0.0598974 -0.107179 2.31425 92 96 107
0.0558516 -0.37529 2.30309 42 47 54
0.0581742 -0.248662 2.3171 44 51 59
0.0566653 -0.262622 2.31373 119 120 124
0.0617945 -0.0469331 2.34813 71 71 71
0.0678184 0.285122 2.38711 48 60 74
0.0509028 -0.280321 2.30717 83 89 97
0.0511248 -0.136541 2.31281 28 29 32
0.0478148 -0.38153 2.30564 160 150 134
0.0614617 0.248974 2.388 55 66 76
0.0449004 -0.272736 2.3058 28 34 39
0.0517276 -0.0596321 2.35623 121 121 120
0.0448107 -0.199445 2.32294 91 90 93
0.0434254 -0.209821 2.32155 64 65 66
0.0483202 -0.0687391 2.3587 44 47 47
0.0376373 -0.369055 2.30436 148 145 144
0.0461819 -0.0816267 2.35064 122 113 103
0.0523775 0.283641 2.38169 60 72 85
0.0260047 -0.417759 2.24795 82 86 89
0.0345475 -0.342419 2.304 19 22 24
0.033976 -0.389569 2.303 115 116 119
0.0379267 -0.182546 2.32242 84 87 94
0.036772 -0.133187 2.31596 58 68 79
0.0388567 -0.0472422 2.35558 35 37 37
0.0323554 -0.209854 2.32152 137 135 135
0.0446891 0.264255 2.38126 95 109 123
0.0290815 -0.349324 2.30998 115 105 89
0.0242561 -0.398894 2.28101 178 175 170
0.0438941 0.249657 2.38136 70 80 92
0.0392525 -0.0671077 2.36912 115 113 113
0.0382815 -0.082677 2.36943 115 112 110
0.0181378 -0.414029 2.25275 28 34 36
0.0287802 -0.215868 2.31621 148 148 151
0.0406792 0.285122 2.37814 61 72 83
0.028498 -0.142473 2.32031 23 26 27
0.0229024 -0.35724 2.30716 145 141 137
0.0258738 -0.155647 2.31824 19 20 21
0.0134159 -0.422028 2.24868 175 171 169
0.0267963 -0.191497 2.32696 117 122 128
0.035203 -0.0619814 2.37768 40 43 46
0.023041 -0.301904 2.32143 105 106 106
0.0172483 -0.366789 2.29598 13 14 15
0.0209585 -0.198667 2.32467 123 126 131
0.0186421 -0.316785 2.31908 110 107 94
0.0283131 -0.0565689 2.37441 35 36 36
0.0281797 -0.0797239 2.37778 76 79 80
0.00552126 -0.41678 2.25163 29 35 34
0.0296175 0.285728 2.37477 83 95 102
0.0150798 -0.349308 2.31594 43 52 58
0.0167444 -0.290756 2.32832 41 44 45
0.0083246 -0.387193 2.28612 172 168 163
0.0290143 0.0381079 2.40148 176 172 171
0.00981986 -0.36398 2.30016 166 160 149
0.0220361 -0.105468 2.37459 166 160 157
0.0235284 -0.0758771 2.38566 101 102 102
0.0223922 -0.0994974 2.38143 153 149 147
0.00973794 -0.320985 2.32146 85 82 73
0.00963106 -0.299293 2.32937 50 54 56
0.000797979 -0.379671 2.27938 71 68 60
0.0210945 0.0340414 2.40733 160 155 152
0.00657704 -0.281856 2.33379 30 33 36
-0.00774934 -0.419902 2.25189 192 190 189
0.00446855 -0.178719 2.32269 35 40 46
-0.00116319 -0.353759 2.29926 47 56 64
0.00368149 -0.308371 2.3302 63 62 61
0.00376045 -0.291577 2.33417 102 102 103
0.00364362 -0.273239 2.33651 90 90 90
0.00352489 -0.263353 2.33681 18 20 21
0.0137893 -0.0593803 2.39339 32 32 30
0.0136386 0.0108641 2.39461 156 151 149
0.00638477 0.203737 2.34514 44 38 37
0.0109327 -0.0747091 2.39609 35 39 42
0.00471342 0.233809 2.34384 67 71 73
0.0103738 -0.0852527 2.39694 50 56 60
-0.00649722 -0.341404 2.30673 175 169 160
-0.00355546 -0.303048 2.3316 122 123 123
0.0103391 0.0213524 2.41111 58 65 75
-0.00691751 -0.25744 2.3368 69 78 87
0.00666076 0.0373354 2.40506 23 25 31
-0.00785919 -0.270687 2.33679 60 65 69
-0.00962174 -0.280425 2.32815 91 95 98
-0.0142761 -0.357185 2.30449 140 136 131
0.00556634 -0.0015336 2.4074 121 120 123
0.00411781 -0.0191358 2.39994 94 101 107
0.00239421 -0.0552234 2.39836 22 22 20
-0.0124506 -0.177205 2.3155 76 89 103
0.00504599 0.00954916 2.41211 60 63 70
-0.001321 0.283432 2.36586 91 102 111
-0.00368242 0.244041 2.35592 34 38 49
-0.0020586 0.113347 2.37847 35 34 36
0.00104498 -0.0503463 2.40648 75 81 87
-0.0130995 -0.250932 2.33369 44 52 60
0.000114023 -0.084444 2.40499 152 144 139
0.000255751 -0.0276265 2.40848 92 98 105
-0.0152394 -0.157781 2.32369 39 44 48
0.000199087 0.0190365 2.40857 43 52 66
-0.00377568 0.0936828 2.38336 30 30 34
-0.00331501 0.0288584 2.4053 59 70 86
-0.00279149 -0.054681 2.4147 76 75 75
-0.00361354 -0.0758199 2.41177 86 90 95
-0.00977509 0.130338 2.36944 52 53 56
-0.00271897 -0.0523202 2.42318 70 73 76
-0.00911423 0.104191 2.37983 41 46 57
-0.00725926 0.0619119 2.3952 22 25 32
-0.0109653 0.114023 2.37651 74 84 97
-0.00760448 -0.0906347 2.41131 137 129 121
-0.0101361 0.0518119 2.39964 60 72 88
-0.0301714 -0.344942 2.30505 127 123 123
-0.0114193 -0.103817 2.4047 64 64 64
-0.0171689 0.145516 2.36109 48 50 56
-0.0425211 -0.391541 2.24321 93 93 87
-0.0276048 -0.232992 2.32559 105 107 111
-0.0109201 -0.0806026 2.41763 34 37 37
-0.028398 -0.153076 2.32475 68 75 83
-0.0293608 -0.21773 2.32306 98 102 109
-0.0327624 -0.319159 2.31221 35 40 45
-0.0169255 0.0733603 2.38976 21 18 19
-0.0130655 -0.0547129 2.42202 40 44 48
-0.0209234 0.103116 2.37714 28 29 33
-0.0509922 -0.393896 2.23425 53 60 64
-0.0163547 -0.0952238 2.41783 118 110 103
-0.0251298 0.148998 2.35758 50 57 70
-0.0358999 -0.199585 2.3153 63 70 78
-0.0199392 0.0518905 2.39678 25 24 28
-0.0202799 -0.111734 2.40811 108 104 102
-0.0268468 0.206656 2.35599 45 56 73
-0.0210465 0.0191685 2.4052 36 44 56
-0.0197413 -0.0809026 2.42888 90 89 84
-0.026796 0.0907653 2.38162 25 23 26
-0.0336986 0.183716 2.34121 55 60 66
-0.0448375 -0.338832 2.30552 24 28 28
-0.0212266 -0.0924643 2.42513 132 128 123
-0.0420137 -0.206425 2.31545 23 25 26
-0.0425008 -0.215998 2.31951 50 59 68
-0.0251015 -0.00289267 2.40901 69 81 98
-0.0328632 0.130488 2.36408 51 53 59
-0.033143 0.121105 2.36807 54 57 63
-0.0273678 0.0095173 2.40664 34 36 43
-0.0488944 -0.312509 2.31328 104 108 115
-0.0535874 -0.352708 2.30084 168 161 155
-0.0551191 -0.360967 2.29595 124 118 112
-0.0308477 -0.105738 2.41876 78 76 75
-0.0349089 0.0581165 2.38972 43 44 49
-0.0439347 0.180786 2.33479 53 60 64
-0.0280285 -0.0815275 2.43506 53 54 53
-0.0531448 -0.278602 2.30873 60 69 79
-0.038056 0.0933393 2.37778 41 42 45
-0.0552034 -0.318601 2.30994 56 58 60
-0.038556 0.0740457 2.38302 43 44 46
-0.0559077 -0.344199 2.30994 40 47 52
-0.0305599 -0.0708662 2.43908 25 29 30
-0.0435899 0.222932 2.35938 52 46 50
-0.0445196 0.286139 2.35265 78 89 96
-0.0399421 0.0337609 2.39427 46 47 52
-0.0429874 0.0658483 2.38526 47 48 53
-0.0627675 -0.337411 2.30442 22 24 27
-0.0440188 0.055345 2.38773 41 43 47
-0.0388878 -0.105252 2.42373 149 147 146
-0.0637643 -0.353686 2.30519 60 59 55
-0.0358418 -0.0788134 2.44134 25 29 28
-0.0373908 -0.0925854 2.43507 189 181 174
-0.0514868 0.233517 2.34841 87 99 105
-0.0656672 -0.31429 2.30874 108 106 107
-0.0563302 0.286949 2.34797 73 86 97
-0.0678605 -0.268548 2.314 40 42 44
-0.0503295 0.0379876 2.39128 48 51 59
-0.0488607 -0.0111108 2.40172 45 48 53
-0.0489513 -0.0205687 2.4034 39 42 48
-0.0491071 -0.0297418 2.40501 48 50 53
-0.0453355 -0.0989021 2.43236 21 24 26
-0.0467069 -0.0867196 2.43139 152 147 143
-0.0580089 0.0968696 2.36624 55 60 63
-0.0607117 0.220228 2.34786 88 105 121
-0.0732815 -0.285295 2.31361 32 37 40
-0.0739012 -0.303344 2.31359 108 106 104
-0.0550727 -0.00276798 2.39777 89 104 118
-0.0770652 -0.33923 2.30309 50 53 55
-0.0771216 -0.328455 2.30716 125 122 121
-0.0671643 0.241476 2.3318 16 21 26
-0.0645393 0.266857 2.34685 64 67 72
-0.0535344 -0.105712 2.43451 117 119 121
-0.06546 0.0792611 2.37009 58 65 69
-0.0791076 -0.300686 2.32035 39 39 40
-0.0543715 -0.0826411 2.43765 17 20 23
-0.0846399 -0.348856 2.29917 133 123 105
-0.08443 -0.336033 2.30762 89 82 72
-0.0771519 0.226701 2.33587 80 95 107
-0.0867992 -0.324548 2.31449 76 75 76
-0.0785632 0.116129 2.3391 49 54 56
-0.078028 0.287558 2.34162 46 53 60
-0.0802522 0.213597 2.33443 33 38 42
-0.0880072 -0.311623 2.32123 165 158 152
-0.0631988 -0.0911366 2.43752 133 132 134
-0.0754773 0.0171631 2.38225 32 35 37
-0.0781283 0.0544242 2.36986 81 95 108
-0.0936603 -0.332216 2.31529 104 101 98
-0.069577 -0.0978751 2.43401 187 179 175
-0.0793025 0.0066998 2.38174 28 33 39
-0.0870199 0.088716 2.34701 43 48 50
-0.114615 -0.235547 2.24156 126 123 123
-0.0960839 -0.297506 2.33557 115 116 118
-0.112186 -0.211695 2.25349 45 48 53
-0.0896571 0.282705 2.34042 37 43 48
-0.0998068 -0.327089 2.32078 107 104 100
-0.0991132 -0.315274 2.32657 147 143 140
-0.118178 -0.217555 2.24476 124 123 124
-0.102496 -0.308408 2.3342 155 150 142
-0.107237 -0.335758 2.31385 184 180 174
-0.114161 0.176878 2.26093 44 55 69
-0.120066 -0.198443 2.25262 81 83 89
-0.118834 0.157507 2.25116 124 128 137
-0.108593 -0.313863 2.33099 75 73 71
-0.105267 0.287922 2.33503 56 67 78
-0.103624 -0.0553526 2.36298 63 76 89
-0.109052 0.0635208 2.33323 58 68 79
-0.129319 0.160796 2.23847 101 109 120
-0.116979 -0.298685 2.33536 106 107 108
-0.118731 -0.309802 2.33585 38 43 47
-0.115824 0.0376 2.33394 42 45 48
-0.126874 0.199285 2.27719 69 81 95
-0.119185 -0.289757 2.33546 70 79 88
-0.125615 -0.251025 2.30666 57 66 76
-0.127119 -0.304277 2.32875 19 23 27
-0.132893 0.206496 2.28334 42 50 57
-0.13519 0.212815 2.28928 48 52 45
-0.129206 0.252738 2.32664 44 50 58
-0.138856 -0.273656 2.30715 134 159 179
-0.134511 -0.313528 2.32935 182 178 177
-0.145704 0.21443 2.29803 82 81 81
-0.150328 0.222193 2.30329 122 117 111
-0.161359 0.244521 2.29789 19 24 29
-0.158608 0.252823 2.31754 61 66 74
-0.169233 0.215452 2.28942 86 83 78
-0.17584 0.222879 2.2927 61 61 63
-0.189437 0.235912 2.25878 38 43 49
-0.184036 0.214584 2.28556 180 176 176
-0.190164 0.245589 2.27833 158 167 168
-0.182338 0.289063 2.31134 36 43 51
-0.194053 0.258415 2.30702 92 98 103
-0.201335 0.270631 2.3052 86 90 97
-0.203262 0.261825 2.30108 62 70 78
-0.210889 0.286244 2.30156 157 167 168
0.270707 0.279683 1.89173 58 63 67
0.12841 0.226791 2.10231 66 78 88
0.081967 -0.0319882 2.31188 129 126 124
0.075581 -0.160524 2.27964 35 38 43
0.0461202 -0.415752 2.22804 134 132 134
0.054434 -0.265537 2.29716 119 120 124
0.0545021 -0.25516 2.30163 63 69 76
0.0523778 -0.297108 2.29445 125 128 131
0.0412573 -0.211802 2.30623 64 65 66
0.0317938 -0.39268 2.28793 115 116 119
0.0356943 -0.184376 2.30694 84 87 94
0.022742 -0.423819 2.23021 192 195 195
0.0288313 -0.338903 2.29742 89 90 91
0.0368609 -0.0481703 2.34191 35 37 37
0.0425112 0.265656 2.36624 95 109 123
0.0132352 -0.421627 2.23574 36 41 42
0.0245364 -0.193262 2.31186 117 122 128
0.0159589 -0.35018 2.3018 45 51 53
-0.00688438 -0.255475 2.1905 24 25 24
0.00985297 -0.298772 2.31412 86 87 88
0.00203072 -0.180626 2.30742 35 40 46
-0.0147811 -0.308017 2.3078 113 115 117
-0.00380246 0.28498 2.35088 91 102 111
-0.00205692 0.0468893 2.38516 26 28 32
-0.0266299 -0.35529 2.28215 174 167 161
-0.0354743 -0.321834 2.29682 35 40 45
-0.0264304 0.24491 2.33925 42 52 69
-0.0399498 -0.347203 2.29247 111 113 114
-0.0384805 -0.201371 2.30078 63 70 78
-0.0236487 0.0188608 2.39061 36 44 56
-0.0354716 0.130853 2.34963 51 53 59
-0.0376682 0.0581109 2.37469 43 44 49
-0.0566298 -0.311441 2.2968 128 130 132
-0.0579805 -0.321199 2.29504 56 58 60
-0.0413166 0.0741116 2.36808 43 44 46
-0.0433619 0.0982614 2.35988 86 97 109
-0.0759883 -0.287547 2.29972 32 37 40
-0.0673632 0.268124 2.33229 64 67 72
-0.0807678 0.288976 2.3279 46 53 60
-0.090931 -0.314149 2.30678 165 158 152
-0.120268 -0.301252 2.32023 106 107 108
-0.123678 0.253029 2.31603 45 51 58
-0.148844 0.21534 2.28419 82 81 81
-0.212326 0.275767 2.28821 42 50 62
0.0375442 -0.0481938 2.34658 35 37 37
-0.00707305 -0.255102 2.18933 24 25 24
0.00774387 -0.301355 2.3174 50 54 56
0.00836597 0.0211378 2.39905 58 65 75
-0.00569629 0.0937508 2.37195 30 30 34
-0.0467327 -0.340804 2.29505 24 28 28
-0.0753852 -0.287071 2.30281 32 37 40
-0.0794043 0.227451 2.32455 80 95 107
0.00386806 -0.419196 2.24087 29 35 34
0.0433601 -0.222509 2.30259 75 76 79
-0.0274822 0.0132733 2.38926 62 73 90
-0.0123216 -0.265388 2.31926 37 44 50
-0.0534943 -0.03053 2.38915 47 49 51
-0.0173208 -0.223846 2.30691 63 72 78
-0.0509795 0.00868606 2.38201 43 50 59
-0.0570652 -0.00556286 2.38265 49 56 66
-0.121175 -0.30168 2.31881 103 106 109
-0.127686 0.164966 2.22995 116 122 132
-0.205844 0.290387 2.28741 43 49 57
-0.206125 0.256497 2.28713 117 118 123
0.0546827 -0.319679 2.28772 139 139 138
0.0479695 -0.283179 2.29064 84 90 99
0.0353972 -0.195997 2.30774 39 43 43
0.0405238 -0.389265 2.28822 91 93 96
0.0289195 -0.183104 2.30675 27 28 28
0.0235491 -0.193405 2.31121 117 122 129
-0.00985992 -0.0576284 2.40358 190 180 174
0.0164228 -0.300462 2.30832 110 110 106
0.0083242 -0.290263 2.31543 88 91 94
0.00635551 -0.301674 2.31396 49 53 55
-0.0210872 0.0734586 2.3748 20 18 20
-0.02422 0.0517796 2.38189 23 23 27
-0.0253383 0.0862079 2.37042 83 88 96
-0.0428056 0.0512567 2.37597 82 93 104
-0.0233657 -0.325338 2.29272 21 25 28
-0.0509186 0.0194576 2.38136 36 39 47
-0.0629848 -0.0914443 2.42592 34 39 44
-0.0577475 -0.02475 2.38831 54 61 70
-0.0574709 0.0312189 2.37683 84 96 110
-0.0590055 0.00537097 2.38208 84 98 113
-0.0641729 0.0424806 2.37071 36 40 49
-0.0588067 -0.321501 2.29416 54 56 58
-0.0885224 -0.0890929 2.41067 40 48 56
-0.0838602 0.00653683 2.36601 31 36 41
-0.0806553 -0.329913 2.29257 120 118 115
-0.0838041 -0.351071 2.28462 62 66 67
-0.0975343 -0.335086 2.30002 108 104 100
-0.128325 0.289297 2.31367 53 61 70
-0.122215 0.15809 2.2349 126 129 138
-0.149842 0.215342 2.2818 91 91 91
-0.187314 0.216604 2.26871 182 178 177
-0.198765 0.259744 2.2903 93 98 104
-0.212216 0.269382 2.28619 43 48 56
0.247431 0.0988566 2.00827 157 166 166
0.270553 0.278315 1.89965 60 64 68
0.231689 0.120463 2.04092 109 107 108
0.221781 0.105101 2.04614 125 120 118
0.235177 0.248043 1.97424 83 91 96
0.209728 0.0942487 2.06659 43 47 49
0.212028 0.28357 2.03077 157 166 166
0.203272 0.0672035 2.07085 96 92 93
0.195684 0.083803 2.07737 106 103 103
0.187871 0.219263 2.11037 154 151 149
0.179604 0.228305 2.11922 112 115 116
0.166829 0.222278 2.11799 31 36 37
0.165142 0.208856 2.10478 68 66 60
0.169372 0.065523 2.07216 36 36 36
0.163365 0.20027 2.0938 36 44 56
0.154681 0.218992 2.11809 19 22 21
0.14461 0.221691 2.11633 39 46 51
0.141522 0.210809 2.09881 47 49 48
0.12915 0.227007 2.10209 68 77 87
0.0635497 -0.341594 2.26224 151 148 147
0.044385 -0.358384 2.27405 29 31 34
0.029604 0.0422093 2.37588 35 35 35
0.0316968 -0.345227 2.29204 24 27 31
0.0181347 -0.313013 2.30283 103 101 90
0.0221514 -0.401646 2.26499 161 154 142
0.00599407 0.221019 2.31953 81 86 87
-0.00735334 -0.0901037 2.38825 162 154 149
-0.0105029 0.0315125 2.38596 23 28 34
-0.0113805 -0.112781 2.38245 171 166 164
-0.0168943 0.223206 2.34605 95 104 110
-0.0157009 -0.177753 2.30443 73 86 99
-0.0275202 0.013239 2.38773 61 72 89
-0.0142936 -0.402301 2.23401 42 44 42
-0.0355745 -0.0995836 2.40444 183 172 160
-0.0368079 -0.00660557 2.39068 39 44 55
-0.0228481 -0.415358 2.23466 29 35 38
-0.043284 -0.106478 2.40723 149 148 147
-0.0344565 -0.197667 2.2938 9 10 10
-0.0463601 -0.0378304 2.39343 81 91 101
-0.055428 -0.0810687 2.42164 63 67 71
-0.0455425 0.180028 2.31867 92 105 115
-0.0534649 -0.0116316 2.38331 47 51 57
-0.0583753 -0.107244 2.41567 115 116 119
-0.0415751 -0.404877 2.22847 131 140 149
-0.0632032 -0.0917522 2.42073 39 43 49
-0.0551438 0.252478 2.33208 100 114 126
-0.0706177 -0.105327 2.41007 185 181 181
-0.0748575 -0.0867291 2.41787 21 25 28
-0.0699794 0.269927 2.32776 55 57 62
-0.0708534 0.242351 2.3169 14 20 26
-0.0828005 -0.0803093 2.41101 23 28 31
-0.0843448 -0.0911023 2.40696 151 149 146
-0.0809684 -0.0339331 2.37302 31 32 32
-0.0698604 -0.17611 2.24686 71 82 94
-0.088853 0.289196 2.32274 52 61 69
-0.0969037 -0.351472 2.28148 179 175 171
-0.118131 0.178491 2.24149 47 59 77
-0.118962 -0.149891 2.23264 29 32 34
-0.120235 -0.205725 2.23626 62 61 61
-0.121778 -0.219357 2.22782 126 126 127
-0.121781 -0.0982813 2.23463 96 100 108
-0.128556 0.28957 2.31036 53 61 70
-0.126722 -0.113112 2.21566 161 160 164
-0.127687 0.165017 2.22994 121 126 135
-0.133605 0.254171 2.30815 43 49 57
-0.136795 0.207305 2.26639 48 57 65
-0.132315 0.113758 2.18306 78 92 107
-0.134799 0.17354 2.21201 57 69 82
-0.165442 0.245714 2.28172 18 21 26
-0.172215 0.226617 2.28102 42 50 58
-0.17831 0.250196 2.28009 180 177 179
-0.180799 0.22411 2.26962 60 59 61
-0.193587 0.226727 2.26989 37 40 47
-0.194293 0.211021 2.24273 187 184 185
0.261962 0.242158 1.92876 55 60 64
0.250789 0.257862 1.95294 83 88 91
0.253094 0.262688 1.91398 64 67 70
0.243428 0.235759 1.96573 185 178 174
0.241051 0.279655 1.97343 64 68 67
0.231018 0.120388 2.04892 110 108 108
0.234233 0.247142 1.98558 80 86 89
0.227523 0.118078 2.05274 44 47 51
0.221159 0.105075 2.05391 122 118 117
0.224484 0.242849 2.00832 90 96 96
0.219642 0.274408 2.01682 47 47 46
0.211589 0.280514 2.03363 67 73 73
0.207569 0.0684455 2.07647 97 92 91
0.21064 0.26227 2.03464 94 107 114
0.19492 0.225333 2.10585 21 23 25
0.195314 0.0837831 2.08262 111 108 108
0.191547 0.0660069 2.07988 50 48 50
0.187648 0.219073 2.11364 160 156 154
0.185649 0.226773 2.11879 90 90 89
0.183113 0.217698 2.11886 39 41 43
0.179331 0.227933 2.12341 112 113 112
0.167901 0.240299 2.12041 21 24 27
0.166594 0.222085 2.12195 33 37 38
0.164865 0.208382 2.10948 71 70 64
0.158512 0.212417 2.1176 175 171 169
0.154457 0.218769 2.12222 20 23 23
0.153258 0.205144 2.10373 168 165 163
0.150721 0.211233 2.12 151 146 141
0.144827 0.210319 2.11506 160 158 154
0.144383 0.221321 2.12084 45 52 55
0.139507 0.284083 2.21177 42 44 44
0.136518 0.274042 2.22128 53 58 60
0.134326 0.271233 2.22729 116 122 126
0.126298 0.264857 2.24757 103 106 108
0.128598 -0.108549 2.09905 32 33 34
0.128908 0.226577 2.10766 71 82 92
0.122696 0.0793187 2.23328 110 104 104
0.124887 -0.119455 2.09627 156 149 146
0.118731 0.281855 2.27395 48 52 53
0.118925 0.0513644 2.21906 73 72 78
0.12276 -0.117914 2.10065 60 56 57
0.115174 0.0832793 2.25196 92 101 107
0.113644 0.28334 2.28052 116 124 128
0.113554 0.0418949 2.22013 34 34 39
0.107222 -0.226044 2.25041 99 101 102
0.106681 -0.058163 2.24405 89 99 107
0.103714 -0.199 2.25442 105 103 101
0.0994948 -0.281858 2.24988 95 95 96
0.0966093 -0.0617013 2.25819 32 37 46
0.0939135 -0.0851723 2.25551 41 42 48
0.0929724 -0.142014 2.25532 71 81 92
0.0919902 -0.021295 2.29657 96 97 98
0.0887147 -0.0272946 2.29927 144 142 141
0.0881536 -0.0712386 2.26447 44 49 58
0.0857781 0.261896 2.36558 61 69 73
0.0837234 -0.124355 2.27031 33 36 42
0.0824758 -0.143516 2.26983 81 91 105
0.0821247 -0.0673745 2.27215 98 107 115
0.0748798 -0.161217 2.27399 29 31 36
0.0739616 -0.0863178 2.27069 80 89 98
0.0727731 -0.109733 2.27297 23 24 27
0.0690031 -0.377121 2.24426 27 33 37
0.0692113 -0.121982 2.27638 67 75 84
0.0651621 -0.0859538 2.27955 33 37 44
0.0613182 -0.0980091 2.28261 68 74 81
0.0600643 -0.332539 2.26766 142 139 138
0.0566135 -0.330081 2.27493 39 42 42
0.0570451 -0.109129 2.2929 91 97 107
0.057772 0.251281 2.36115 58 68 78
0.0537112 -0.265691 2.2918 116 118 122
0.0536393 -0.420413 2.2181 186 182 180
0.054434 0.287648 2.3587 54 67 81
0.0480188 -0.283734 2.28616 81 86 94
0.0497959 0.241985 2.32511 49 63 80
0.0481547 -0.138624 2.29121 26 27 30
0.0459309 -0.251325 2.29323 136 134 135
0.0457575 -0.416457 2.22534 148 146 146
0.0457366 -0.24117 2.2968 144 141 139
0.0444012 -0.359954 2.27143 25 28 30
0.0449252 -0.0702831 2.33474 45 47 48
0.0433971 -0.222709 2.29903 81 81 84
0.0416191 -0.276934 2.28235 26 31 36
0.0403552 -0.212587 2.29985 60 62 63
0.0409105 0.266633 2.35578 97 111 124
0.0402392 0.25182 2.35622 68 78 90
0.0351033 -0.190203 2.29946 28 31 31
0.0350408 -0.0490269 2.32947 33 34 33
0.0296395 0.0428676 2.36337 11 12 13
0.0252319 -0.144567 2.2983 20 23 25
0.023546 -0.194092 2.30524 118 124 131
0.0228196 -0.157828 2.29781 20 22 23
0.0195988 -0.0776262 2.36037 99 100 100
0.015191 -0.3975 2.2711 178 176 172
0.0153356 -0.206938 2.29859 51 61 72
0.0146678 -0.0820256 2.3643 102 102 103
0.0108722 -0.425785 2.23177 189 187 187
0.0111202 -0.0943571 2.36512 103 104 107
0.0111257 0.0312888 2.38373 49 56 65
0.0081395 -0.11078 2.36051 123 117 114
0.0068479 -0.0768304 2.37094 34 38 40
0.00413625 -0.39317 2.25912 172 167 162
0.00635193 -0.0870855 2.3722 46 52 57
0.00620204 0.285481 2.34333 94 108 117
0.000199109 -0.424852 2.23468 172 168 164
0.00443328 0.220041 2.317 79 84 84
0.0030535 0.0153269 2.38578 54 62 72
0.000964333 -0.180976 2.30073 35 41 47
0.00269683 0.20514 2.32216 45 39 39
-0.00215493 -0.383499 2.26072 78 77 70
0.000995558 -0.00211252 2.3798 121 121 124
0.000998071 0.0045037 2.38444 140 139 142
0.000796782 0.235691 2.31954 66 70 72
-0.00417362 -0.357734 2.28051 46 54 62
-0.000224247 0.24081 2.32756 45 43 44
-0.00378826 0.0334622 2.38004 58 69 83
-0.00436811 0.0181899 2.38146 49 59 72
-0.0104897 -0.423645 2.23477 195 194 193
-0.00627173 0.113894 2.35325 36 33 34
-0.00801994 0.0940678 2.35813 29 29 32
-0.0140896 -0.360297 2.27344 155 153 142
-0.0150364 -0.386612 2.25129 140 136 133
-0.0117158 0.0267048 2.37948 27 30 36
-0.0158716 -0.1789 2.29497 74 87 100
-0.0133227 0.10462 2.35515 41 46 56
-0.0139069 0.131114 2.34513 51 52 54
-0.0174099 -0.224561 2.30246 61 69 75
-0.0152036 0.11455 2.35174 77 87 99
-0.018743 -0.159968 2.30295 37 42 45
-0.0228803 -0.415567 2.23301 30 37 40
-0.0169828 0.224388 2.34109 95 103 108
-0.0184697 -0.0734828 2.39217 35 37 38
-0.0212455 0.146371 2.3375 47 50 57
-0.0276436 -0.271368 2.29687 128 129 130
-0.0245354 -0.0828921 2.40221 92 91 86
-0.0254443 0.103442 2.35144 29 29 34
-0.0293416 -0.312483 2.29439 19 23 25
-0.030611 -0.254958 2.30118 89 91 94
-0.0284111 -0.0958949 2.38526 136 133 129
-0.028389 0.245784 2.32809 42 52 69
-0.0293167 0.149921 2.33383 47 53 65
-0.0335781 -0.348668 2.2855 140 134 133
-0.0322094 -0.155317 2.30298 73 78 86
-0.0295507 -0.00369666 2.38438 70 82 99
-0.0303459 0.208752 2.33616 51 63 82
-0.0306314 0.113789 2.34908 84 95 107
-0.030627 0.087414 2.35874 33 34 38
-0.0312807 -0.0932009 2.40278 102 94 89
-0.03719 -0.144338 2.29645 34 38 42
-0.0352729 0.0952164 2.35545 48 51 59
-0.0357403 -0.0170218 2.38552 27 32 39
-0.0394577 -0.201962 2.29529 62 70 78
-0.0356273 -0.0726955 2.41183 26 30 31
-0.0407089 -0.315923 2.29047 30 35 39
-0.039487 -0.147476 2.30272 48 57 66
-0.037149 0.131075 2.34033 47 47 52
-0.0374439 0.121788 2.34429 54 57 63
-0.0378222 0.184856 2.31817 68 75 82
-0.0413797 -0.152658 2.29881 156 153 153
-0.0386648 -0.0867345 2.41394 69 70 66
-0.040128 -0.108938 2.39492 156 153 147
-0.0446808 -0.192639 2.26674 22 24 24
-0.0500493 -0.402276 2.21771 64 62 58
-0.0463979 -0.218796 2.298 49 57 66
-0.0427709 0.0938913 2.35216 42 42 45
-0.0431068 0.0740643 2.3584 42 42 45
-0.0495294 -0.372109 2.2686 136 127 110
-0.0456692 0.180209 2.31475 92 106 116
-0.0495621 -0.145651 2.296 146 146 149
-0.0474995 0.224619 2.33825 53 47 49
-0.0521265 -0.203989 2.29497 62 73 83
-0.0472467 -0.0776577 2.41495 18 22 26
-0.0571126 -0.399319 2.21598 128 148 167
-0.0502876 0.140187 2.32988 54 59 64
-0.0504315 -0.10103 2.40589 21 24 27
-0.0571562 -0.356538 2.28153 155 145 135
-0.0568515 -0.281813 2.28872 59 69 79
-0.0515149 -0.0882299 2.40648 176 171 168
-0.0564303 -0.149546 2.28274 39 46 53
-0.057569 -0.312342 2.29174 128 130 132
-0.0587145 -0.364867 2.27652 120 115 109
-0.0537262 -0.0120434 2.3763 45 48 54
-0.053793 -0.0216479 2.37814 40 43 49
-0.0589721 -0.322196 2.2897 57 59 60
-0.0538163 -0.0309296 2.38047 46 49 54
-0.0545624 0.00891928 2.37301 83 94 107
-0.0554811 0.0796263 2.35363 50 49 49
-0.0584849 -0.101523 2.40977 117 122 128
-0.0605997 0.289194 2.32551 76 89 100
-0.0597255 -0.0846599 2.41054 17 19 21
-0.0669888 -0.341492 2.28212 23 26 28
-0.062658 0.0971352 2.3421 56 61 65
-0.0625765 -0.110947 2.40566 182 177 175
-0.0693176 -0.317828 2.28963 113 111 110
-0.0718163 -0.271765 2.29344 39 42 44
-0.07005 0.0794404 2.34672 54 60 63
-0.0687893 -0.0931098 2.40981 140 139 141
-0.0710847 0.24291 2.31157 14 20 27
-0.0720064 0.289936 2.32259 59 68 75
-0.0773019 -0.288513 2.29297 34 39 42
-0.0776686 -0.306691 2.29429 109 107 105
-0.0726671 -0.109762 2.39591 80 80 82
-0.0808806 -0.342908 2.2836 49 52 55
-0.0816814 -0.332893 2.28842 151 148 146
-0.0751329 -0.10041 2.40686 188 181 177
-0.0816986 -0.273399 2.29611 84 86 86
-0.0831469 -0.304111 2.29997 47 48 49
-0.0812984 0.0611789 2.345 86 100 113
-0.0812618 -0.0342806 2.36714 29 30 29
-0.0828608 0.106662 2.32279 39 42 42
-0.0821824 0.0682737 2.34204 84 97 110
-0.0823191 0.289695 2.32013 45 53 59
-0.0896881 -0.346512 2.28585 159 158 158
-0.0830943 -0.0886187 2.40387 42 46 49
-0.0908205 -0.32823 2.29451 75 74 75
-0.0908429 -0.313235 2.30047 130 124 120
-0.0868609 0.0702853 2.33743 80 94 106
-0.0850934 -0.0995245 2.39669 143 142 142
-0.0915775 0.0889841 2.32471 48 54 57
-0.097246 -0.35301 2.27539 180 175 170
-0.0932309 0.104805 2.31566 40 42 41
-0.0925554 0.0441256 2.33999 40 44 48
-0.0989972 0.0797259 2.32157 88 103 118
-0.115855 -0.213858 2.23577 39 42 46
-0.1181 0.178041 2.24205 45 56 72
-0.121694 0.174376 2.23734 122 123 129
-0.1222 0.158105 2.23513 126 129 138
-0.125223 0.253593 2.30896 44 49 56
-0.130238 -0.317271 2.31148 177 174 171
-0.128499 0.033984 2.30719 158 168 171
-0.134369 0.173499 2.21814 57 69 82
-0.136334 0.197195 2.24907 177 175 178
-0.136883 0.207522 2.26516 47 55 63
-0.138992 0.213611 2.2721 49 54 46
-0.150083 0.215623 2.27872 88 87 86
-0.154903 0.223464 2.28336 114 111 110
-0.165616 0.245924 2.27969 19 23 28
-0.168126 0.22632 2.28488 134 134 137
-0.173979 0.216714 2.26936 92 89 83
-0.193478 0.226772 2.27099 36 39 45
-0.201319 0.249355 2.26482 175 169 164
-0.206538 0.263757 2.28813 45 52 61
0.22129 0.11882 2.06031 80 82 85
0.211389 0.280266 2.03625 67 73 73
0.207272 0.0684086 2.08041 97 92 91
0.194992 0.0837449 2.0872 111 108 108
0.191243 0.0660008 2.08431 50 48 50
0.178942 0.227566 2.1294 112 113 112
0.167591 0.239979 2.12559 21 24 27
0.168723 0.0655671 2.08308 32 32 32
0.166247 0.221768 2.12779 33 37 38
0.154134 0.218428 2.12815 20 23 23
0.128733 0.22631 2.11167 71 82 92
0.0884039 -0.0267973 2.31001 144 142 141
0.0838568 0.251641 2.38091 135 138 143
0.0711771 0.253113 2.37737 116 125 133
0.0634969 -0.305723 2.29637 134 132 131
0.0641593 0.283138 2.37458 71 88 106
0.0626257 -0.261552 2.30746 42 47 54
0.0624411 -0.287283 2.3042 123 123 125
0.0613034 -0.318739 2.29069 102 98 94
0.0564849 -0.328565 2.28422 39 42 42
0.0550985 -0.27732 2.30212 37 44 50
0.0524398 -0.247784 2.30592 124 123 123
0.0518591 -0.373717 2.29411 75 75 76
0.0481461 -0.384378 2.29388 48 51 54
0.0479107 -0.282096 2.2965 81 86 94
