# .PCD v0.7 - Point Cloud Data file format
VERSION 0.7
FIELDS x y z rgb
SIZE 4 4 4 4
TYPE F F F U
COUNT 1 1 1 1
WIDTH 1071
HEIGHT 1
VIEWPOINT 0 0 0 1 0 0 0
POINTS 1071
DATA ascii
-0.062794678 0.05059078 1.8012992 4287934138
-0.069401711 0.16179246 1.7856379 4283326568
0.039417166 -0.24899068 2.0262907 4283918965
-0.059079338 0.033313274 1.807694 4278982428
-0.0632689 0.097864144 1.797665 4279114791
-0.057823662 0.020080125 1.8047806 4285696923
-0.067296796 0.15201603 1.7831773 4281153854
-0.064571545 0.17315815 1.7819563 4283325020
-0.065423205 0.13657758 1.7767754 4283325537
-0.063047625 0.068403773 1.7805965 4279971901
-0.062370595 0.054597337 1.780965 4281551962
-0.062038183 0.082307264 1.7798415 4282407007
0.047058482 -0.2392326 2.0172961 4282405464
-0.045387335 -0.048440397 1.8125777 4285301908
-0.054923929 0.013354131 1.7910811 4286157989
-0.056849793 0.030749006 1.7861203 4281683291
-0.057365067 0.18683438 1.7803655 4282075210
-0.058871772 0.039001994 1.7770591 4289775313
-0.060227323 0.14878757 1.7714235 4280364081
-0.061739825 0.053566292 1.7683432 4282144879
-0.061200324 0.12731017 1.767243 4280100650
0.053820774 -0.24603347 2.0137434 4283129186
-0.061300784 0.066747256 1.7601833 4280630603
0.006344765 -0.16411981 1.9027009 4285894558
-0.054350555 0.10473978 1.7710869 4279114788
-0.04810835 0.005183429 1.7838737 4284710028
-0.041374702 -0.026717447 1.7921311 4285367700
-0.045882776 0.033809591 1.7810684 4280432188
-0.051097937 0.051180288 1.765468 4287935684
-0.046825584 0.18869829 1.7674254 4281152562
-0.048334803 0.13378492 1.7575306 4282471257
0.0062568127 -0.15343258 1.8692448 4286092708
-0.045558307 0.16499867 1.7561209 4283062617
0.077811427 -0.19616337 2.0131342 4290498522
-0.045156125 0.14359497 1.7517023 4282275167
0.0072129751 -0.15061057 1.8568996 4286222238
-0.038965758 0.037915196 1.7568794 4284645520
0.010660215 -0.14150116 1.8416722 4286091680
-0.036525976 0.16108292 1.743072 4279573534
-0.034397889 0.066579007 1.7419298 4283395452
-0.034431376 0.11594223 1.7394526 4285500572
0.091439784 -0.25532958 1.9922227 4283985272
-0.033049636 0.1521662 1.7366319 4282013027
-0.0085157435 -0.071480803 1.7816513 4284776592
0.12595712 -0.23461385 2.0545068 4282077011
-0.027747331 0.18615103 1.7404795 4281350971
0.11589456 -0.21524595 2.0296984 4279774003
-0.029730007 0.12893641 1.7303736 4284122004
-0.024263872 0.095674403 1.7370071 4279904562
-0.020253785 0.014674698 1.7453783 4285895327
-0.0034408914 -0.06753961 1.7727711 4284906892
-0.024217043 0.11595919 1.7251912 4283854459
0.0098780682 -0.10433037 1.7904551 4285499285
-0.021592395 0.069017738 1.7239363 4282999666
0.021302795 -0.13084327 1.807369 4286025371
-0.019403758 0.11846913 1.7156454 4282798933
-0.017937398 0.079812907 1.7138666 4280366397
-0.014196394 0.056436975 1.7166355 4284184459
-0.014540976 0.11231708 1.7089758 4284511359
-0.0077235564 0.093171529 1.7188121 4279970353
-0.01097676 0.10079303 1.7114453 4285108648
-0.0045488072 0.12315813 1.6996893 4283398028
-0.0038493136 0.1438273 1.6997612 4282668896
0.033131156 -0.096849315 1.7642075 4288656059
0.0061566881 0.18016692 1.7099823 4281811006
0.019697322 0.21211927 1.7184945 4289111709
0.0077485847 0.15856756 1.6894453 4282600265
0.010762315 0.1471543 1.6836865 4280758063
0.068938471 -0.14873426 1.7906252 4287209129
0.025083676 0.097702868 1.6962267 4288462287
0.02574404 0.084508695 1.6929731 4279509802
0.014785868 0.14810489 1.6716572 4280298548
0.035696793 0.059013799 1.7102783 4286027691
0.090845592 -0.16252354 1.8082894 4286880424
0.073479667 -0.13552067 1.7700847 4285696920
0.020225162 0.1059977 1.6687804 4281352006
0.046008117 0.046212606 1.713124 4278916376
0.022749618 0.13751757 1.6648585 4283724675
0.058605358 0.021309402 1.7110206 4282537049
0.028695196 0.13769387 1.6551338 4282473064
0.091282025 -0.1085125 1.754378 4283788409
0.071114019 -0.012805032 1.7061068 4282207568
0.10160191 -0.13092837 1.7566916 4288722625
0.052492604 0.097090818 1.6594536 4288264136
0.1078583 0.066952534 1.7403668 4282734945
0.11900566 -0.12831967 1.7556199 4289182660
0.11582856 -0.10892581 1.743944 4283262065
0.12902641 -0.12313971 1.7485589 4284971396
0.10915487 -0.031333268 1.7096547 4282866018
0.1333656 0.061703905 1.7468591 4281549381
0.1316532 -0.1073074 1.7420762 4287275951
0.14543441 -0.1253186 1.7592533 4288788161
0.083582573 0.11352623 1.6550072 4286026918
0.085261464 0.16139929 1.6555202 4282074693
0.082886331 0.13281772 1.6515913 4282737011
0.13339242 -0.09432096 1.7360494 4286091935
0.13368806 -0.067214608 1.7260083 4283198077
0.12744848 -0.019064039 1.7155182 4282206536
0.14523077 -0.10345073 1.7430176 4282734691
0.09704522 0.1194622 1.6607662 4283000441
0.13421886 -0.045142736 1.719411 4285301904
0.16983004 0.097865112 1.7769512 4283259483
0.15354978 -0.11126365 1.7487738 4283064944
0.15913102 -0.11835691 1.75499 4282669414
0.14436993 -0.042834692 1.7242198 4281153594
0.16101119 -0.099396482 1.7475755 4285302418
0.12788419 0.15880486 1.6875361 4280561716
0.15991363 -0.066889398 1.7393987 4281944660
0.12810335 0.12448352 1.6866717 4284248185
0.21058773 -0.12325706 1.8004073 4284906635
0.21425854 -0.11384949 1.8024341 4279705376
0.17477253 0.13918862 1.7321917 4282802028
0.2051679 -0.0011996295 1.7787942 4282273105
0.20737635 0.074583493 1.777413 4281418057
0.22756349 -0.041612517 1.7955797 4284447113
0.23213498 -0.028332323 1.7928735 4285565334
0.24885932 -0.083910823 1.8153291 4284511872
0.25758156 -0.080777876 1.8232298 4279573017
-0.14774007 -0.1790386 2.0521905 4279903530
-0.094653368 0.1732281 1.824824 4283324761
-0.063850842 -0.1205763 1.9429651 4283325531
-0.33285341 0.10625334 2.0982432 4283393143
-0.27011636 0.024646107 2.3068342 4289111710
-0.32555023 0.16636747 2.0799942 4283260521
-0.32452798 0.10606082 2.0797822 4286683820
-0.28541851 -0.2750617 2.1930516 4288262332
-0.31304416 0.11882886 2.0657415 4280889910
-0.30405068 0.14948449 2.0549645 4280561460
-0.25767934 -0.21020439 2.1976471 4279245343
-0.2961323 0.12842034 2.0449421 4284711572
-0.28480026 0.10183019 2.0339839 4286421931
-0.2826623 0.16432592 2.0346119 4281550412
-0.28159884 0.14276342 2.0279796 4279705379
-0.27702305 0.099017911 2.0275517 4284118407
-0.27305058 0.10725258 2.0211182 4284843931
-0.21394075 -0.043129817 2.1424687 4283918453
-0.19766752 -0.23480509 2.1299236 4282010705
-0.23260973 0.028747763 2.0110979 4282404178
-0.24036333 0.12214604 1.9826698 4281156948
-0.23334709 0.10732824 1.9786793 4280760125
-0.18934226 -0.36674967 2.1157849 4290431957
-0.22914249 0.1325424 1.9705952 4280563777
-0.17561309 -0.17698999 2.0999467 4283259225
-0.21415538 0.11166764 1.9602916 4281616978
-0.21347785 0.14627014 1.9527216 4281088577
-0.17831938 -0.35322189 2.0593932 4282075469
-0.16999926 -0.30332619 2.0569987 4281944654
-0.20607077 0.15676248 1.9463325 4283721066
-0.16232942 -0.22605838 2.0767779 4280825661
-0.16787365 -0.28526276 2.0553677 4286484628
-0.20440903 0.12070887 1.9438745 4285896358
-0.19363432 0.060082953 1.9529938 4281419599
-0.1484668 -0.34390247 2.0394609 4285497995
-0.18601346 0.10626675 1.9262159 4282277231
-0.18498479 0.13053142 1.9215535 4282739588
-0.14548509 -0.28900513 2.0354803 4285168765
-0.17925458 0.16384767 1.911346 4283197300
-0.13153009 -0.3741478 2.0332778 4282668637
-0.16391142 0.041224234 1.9358698 4289512139
-0.15906921 0.091337174 1.9283222 4283328115
-0.11784936 -0.25980112 2.0419896 4284313714
-0.16245066 0.16886812 1.8923336 4286420387
-0.11084061 0.041367736 1.9791756 4280826695
-0.094200872 -0.12924102 1.9851348 4285363056
-0.10298996 -0.078183442 1.9539002 4284906374
-0.13372101 0.16942951 1.8666323 4280232494
-0.090504222 -0.3378073 1.9740237 4288589754
-0.06023825 -0.28536215 2.0305955 4282074953
-0.084224097 -0.068918943 1.9429315 4289116610
-0.069740973 -0.14585958 1.971632 4286418066
-0.043501511 -0.25851098 2.0232692 4280759351
-0.070849225 0.042758938 1.9306707 4281288016
-0.066857278 -0.071183033 1.904021 4285302936
-0.094153568 0.12483378 1.8171535 4281353290
0.010016765 -0.20720817 2.0322039 4284644491
0.016239416 -0.22552496 2.0407219 4287734702
-0.077057995 0.12314271 1.7843919 4281483074
-0.065051831 0.11258595 1.7868876 4287213251
-0.049218606 0.027370496 1.771982 4285501086
-0.037398279 0.14102027 1.7397814 4280958793
0.0085097253 -0.081666835 1.7762951 4288986054
0.043472949 -0.12522948 1.7828048 4285763227
0.0032098179 0.11530887 1.6979182 4280758065
0.06879776 -0.11416088 1.7598447 4284643719
0.022107419 0.14768922 1.6635929 4282339161
0.054443289 -0.0065615694 1.7125891 4283325796
0.079047933 -0.096141733 1.7503192 4287275693
0.076531857 0.077012256 1.7383071 4283062361
0.093406685 -0.091136441 1.7450596 4287407536
0.098179653 -0.11715745 1.7529606 4282735206
0.098823622 -0.10023224 1.7469608 4287078830
0.11206354 -0.099365413 1.7458528 4286420900
0.10907136 -0.075761333 1.7341968 4283987849
0.12107231 -0.093245327 1.7429649 4282931292
0.10496205 -0.015104515 1.7125429 4283656046
0.11529046 -0.02322397 1.7147471 4280627250
0.14012136 -0.085359022 1.7424874 4285435036
-0.34455276 0.11769059 2.1346228 4280363310
-0.34565082 0.14418699 2.1272004 4279441694
-0.34080008 0.097244903 2.1340199 4282998383
-0.27506223 0.018665543 2.2830861 4283260266
-0.27004161 0.038172666 2.2897396 4280365115
-0.33748707 0.15981434 2.0916133 4283196795
-0.26882845 0.0034231502 2.2861471 4282402636
-0.32948664 0.088455454 2.0928886 4285498775
-0.33113128 0.11788576 2.0820196 4283921026
-0.29132363 -0.25329703 2.1782246 4282799964
-0.28825492 -0.24076425 2.1807027 4279771944
-0.32005528 0.10693745 2.0694437 4281746763
-0.31367019 0.058533169 2.0814424 4285040539
-0.24893732 0.0084518287 2.2583022 4283524204
-0.26895487 -0.26971188 2.1761994 4289051846
-0.31336802 0.12808895 2.0538299 4285170322
-0.24634086 -0.0082975263 2.216568 4284509294
-0.26652399 0.036126658 2.149214 4287867580
-0.23963535 -0.0053940737 2.2059162 4281417798
-0.22163267 -0.057570871 2.2457206 4283653986
-0.24946569 -0.24352151 2.163358 4285433745
-0.23778233 -0.0043480345 2.196079 4281417283
-0.2936824 0.10255152 2.0388944 4283197046
-0.2062632 -0.092067622 2.2420695 4283061847
-0.28007901 0.15570426 2.0230784 4283391845
-0.19154593 -0.11683126 2.2360311 4283586387
-0.22714274 -0.018368676 2.1396763 4285893788
-0.27229193 0.11652401 2.01319 4281354843
-0.27153468 0.1368662 2.009855 4280627253
-0.22457445 -0.016607864 2.125596 4281153340
-0.19315664 -0.1680893 2.1919036 4284641391
-0.26598611 0.16353054 2.0070221 4284050811
-0.21425241 -0.32397696 2.1143878 4285892236
-0.1935959 -0.37613922 2.1449878 4284445567
-0.21133852 -0.34687442 2.1011903 4288656574
-0.24378535 0.026697781 2.0226295 4286025886
-0.17850673 -0.20843244 2.1469328 4283653982
-0.20410156 -0.34739143 2.0791042 4289511111
-0.17761932 -0.15788954 2.142364 4279177746
-0.24246573 0.16748376 1.9867735 4279706408
-0.17750669 -0.18424875 2.1306093 4282995796
-0.1921505 -0.094460391 2.0904386 4283718746
-0.18434197 -0.087543711 2.0948703 4282995283
-0.18329331 -0.37826228 2.0935798 4281089093
-0.19319105 -0.073911197 2.0715563 4282930784
-0.23199095 0.12189066 1.9663275 4284449946
-0.17054553 -0.39205042 2.0997734 4289774029
-0.22976227 0.1433119 1.9664748 4280890424
-0.22821696 0.15914287 1.9649903 4280034601
-0.22292824 0.16832948 1.9615719 4283918189
-0.21907297 0.1296569 1.9564762 4284845217
-0.17451109 -0.38516301 2.0490108 4284578444
-0.16776083 -0.32715306 2.0538588 4284972164
-0.20777716 0.049032241 1.9644947 4289643727
-0.16782255 -0.38347599 2.0416873 4282601300
-0.16318794 -0.01197581 2.052614 4288459197
-0.20941073 0.131781 1.9459711 4283922056
-0.21225859 0.118486 1.9369485 4285634731
-0.15835963 -0.31117886 2.0485213 4282469711
-0.20129591 0.17522061 1.9384497 4282998374
-0.16001718 -0.066220775 2.0144677 4288984766
-0.19698896 0.18436778 1.9357041 4281944655
-0.18727934 0.17528597 1.9179202 4282472808
-0.10601876 -0.41377828 2.0799813 4287537580
-0.17451702 0.061612982 1.9283186 4281353549
-0.17590155 0.095052488 1.9252696 4288396752
-0.16793717 0.091006078 1.9352396 4283196270
-0.13606827 -0.3231594 1.981745 4280102453
-0.10921348 -0.39454615 2.0201936 4288524990
-0.085693777 -0.38304615 2.0352936 4282405205
-0.11750215 0.057561237 1.9650929 4283786857
-0.15573946 0.16281874 1.8826114 4281023041
-0.10217174 -0.11235316 1.9824643 4284378481
-0.092795432 -0.14673485 1.9964525 4284771430
-0.090656139 -0.34506422 1.9826529 4289839822
-0.10642607 0.064797416 1.9488754 4288199887
-0.14363863 0.1286497 1.8704579 4282140743
-0.14349081 0.15766853 1.8657769 4284445050
-0.12674677 0.089940153 1.8973982 4283728030
-0.054222915 -0.29973999 2.0359583 4285168774
-0.094162293 -0.097089082 1.956515 4284774531
-0.075748749 -0.14862306 1.9826618 4290167497
-0.1241235 0.08277224 1.8825138 4287541187
-0.1328349 0.19608897 1.8665329 4282532165
-0.093489431 -0.022754746 1.9291563 4282339417
-0.1118238 0.0079171853 1.8935455 4279114272
-0.062007066 -0.1580368 1.9772398 4287471528
-0.017907124 -0.32015142 2.0539293 4288985026
-0.02971323 -0.2194653 2.0257463 4289641668
-0.082035661 -0.01436743 1.8836639 4285499285
-0.07729356 -0.031909876 1.8914012 4283656566
-0.039862186 -0.13108814 1.9444453 4290563026
-0.034340333 -0.15202813 1.9527925 4289380039
-0.092963278 0.15741523 1.8165909 4280099878
-0.015847793 -0.15747188 1.9511577 4285498253
-0.077345282 0.11219285 1.8242269 4282274906
0.043379713 -0.2343328 2.0356088 4282404431
0.043983512 -0.24809739 2.0353711 4283787378
0.05166132 -0.23831366 2.0263245 4282405207
-0.057092123 -0.029949125 1.8267303 4283920512
0.059559934 -0.23650248 2.0188003 4285104784
-0.069122352 0.085970655 1.7934468 4279180321
0.018207278 -0.17384253 1.9421254 4286355367
-0.058674801 0.037767366 1.7978324 4285172639
-0.058879837 0.17545524 1.7715287 4282270786
-0.044937003 0.036949039 1.770638 4280629056
0.098158933 -0.25452784 2.0044577 4283919479
0.10793035 -0.25544921 2.007062 4283721068
-0.029088706 0.056988038 1.740029 4285305252
0.018800059 -0.11101662 1.7942744 4285828765
-0.021301787 0.093047716 1.7271725 4279641389
0.02015412 -0.07275746 1.7678506 4286354077
0.0097304592 0.18966274 1.7095809 4281218355
0.076140538 -0.14967066 1.8013995 4287472558
0.060941428 -0.11809282 1.771311 4284577669
0.059357729 -0.10794589 1.7688777 4282074954
0.079738446 -0.1363513 1.7792476 4285499285
0.069944061 -0.09799438 1.762611 4287999674
0.016465014 0.10545112 1.6782162 4285762455
0.079542294 -0.11304183 1.761445 4283063657
0.064654149 0.035161465 1.7236248 4281418309
0.098536216 -0.10906995 1.7648079 4283262065
0.10305793 -0.13009013 1.7673211 4285631126
0.10549427 -0.12127224 1.7605479 4287276723
0.10298434 -0.10774561 1.7559016 4285763228
0.094312117 -0.073774487 1.7414695 4285038734
0.10334324 -0.089218415 1.7439328 4287145653
0.086131141 -0.0041980264 1.713599 4283787377
0.053106945 0.10619508 1.6642529 4284777108
0.094204374 -0.011231691 1.7146369 4283722867
0.12346291 -0.10911945 1.7547244 4282999151
0.13123362 -0.12737139 1.7646344 4289183176
0.098299675 -0.024427447 1.7155393 4286024853
0.12698106 -0.084957987 1.7455893 4287408053
0.068747528 0.10004046 1.6632359 4287870408
0.13184097 -0.096963711 1.748082 4287473331
0.1126601 -0.038700845 1.7204303 4286684071
0.14020778 0.06406527 1.7569047 4281220158
0.15433572 -0.12546642 1.7717061 4288920260
0.14810839 -0.11397824 1.758257 4284182653
0.15476818 -0.10338795 1.7562206 4282800228
0.14263996 -0.066957101 1.7383485 4283329662
0.13650969 -0.024823066 1.7282668 4283128672
0.15923014 -0.092182718 1.7544596 4287210159
0.2164064 0.0017890801 1.7945994 4282668124
0.21402372 0.012048557 1.7890121 4286091420
0.21790411 0.07886266 1.7924341 4281352263
0.2275842 0.0091437967 1.7975636 4279507739
0.23935704 -0.038774561 1.812089 4284249990
0.2447594 -0.01060862 1.8096449 4279902497
0.25319946 -0.021211708 1.816805 4280034338
-0.29731444 0.064458422 2.0704663 4284841613
-0.259783 0.025618296 2.0541213 4287407283
-0.22634612 0.039336313 2.0136535 4289052363
-0.18802395 0.10218894 1.9403117 4286949564
-0.17705487 0.20655389 1.945552 4289111709
-0.17125078 -0.29693758 2.0819008 4280891194
-0.16718461 -0.2656329 2.0721667 4285761160
-0.1558761 0.080613054 1.9356416 4278984233
-0.14416295 0.18975389 1.8832754 4278387201
-0.14397243 0.0277867 1.9490443 4281747274
-0.13492848 0.022943623 1.9626013 4281483073
-0.13976751 -0.34681144 2.0505474 4287406253
-0.12879068 0.053483631 1.9677655 4285827732
-0.12705632 -0.25628927 2.0505905 4284642677
-0.1147548 -0.27485561 2.0500288 4279047966
-0.11302935 -0.40736669 2.0605605 4288196024
-0.10699905 -0.35153851 2.030618 4290300886
-0.089993224 -0.32106161 1.9822758 4283719780
-0.080931082 -0.3318392 1.9845901 4287076768
-0.057108287 -0.13546962 1.944469 4289116094
-0.050296005 -0.25261372 2.0148325 4285958029
-0.038766455 -0.28971699 2.0234711 4288917945
-0.038793154 -0.31242812 2.0354848 4287472558
-0.026314979 -0.2786856 2.0303783 4285563013
-0.02294426 -0.28828874 2.0340285 4279509029
0.0045187194 -0.21574228 2.014884 4287537836
0.040843319 -0.20605691 1.9918162 4282014575
0.081534445 -0.2520363 1.9661084 4283787637
0.0752424 0.15334357 1.6459365 4279704347
0.094823919 -0.242948 1.9651055 4283787117
0.10225207 -0.17071773 1.8079594 4286681759
0.11203141 -0.084427267 1.720547 4287342260
0.11742185 -0.030676249 1.7011811 4281352004
0.12136552 -0.019006386 1.7025362 4282206536
0.12342089 -0.07861761 1.7177794 4286947503
0.12418026 0.060620081 1.7271576 4281746759
0.12719101 -0.066776901 1.7122335 4283329149
0.13738577 -0.1025066 1.726548 4282734692
0.13678432 -0.04250107 1.7082214 4281350972
0.1359749 0.11749089 1.685728 4283657853
0.13986962 -0.08207909 1.7217842 4284709512
0.14110941 -0.054398172 1.7118453 4285104009
0.15179227 -0.10499795 1.7307074 4286486436
0.15452424 -0.094279222 1.7287803 4280166185
0.1880018 -0.0015695018 1.745278 4282272848
0.18941642 0.07245104 1.7425076 4281549128
0.19069192 0.0092623886 1.7416753 4279705375
0.19460163 -0.12119138 1.7685618 4284577669
0.20767123 -0.068844065 1.7722186 4280165667
0.20677009 -0.044458129 1.7633833 4287144623
0.2079363 -0.11397146 1.771121 4280035114
0.20639017 -0.01394616 1.7487066 4281088060
0.21126041 -0.081557401 1.7733463 4284380026
0.21198842 -0.028596699 1.7547177 4285170576
0.22447936 -0.066108063 1.7702613 4280297770
-0.34152371 0.18734469 2.1669288 4288716951
-0.34484705 0.14917427 2.106436 4279968808
-0.33564451 0.1460432 2.087889 4285763234
-0.31483307 0.14252511 2.0593565 4280824888
-0.28728241 -0.26330912 2.2183082 4289906898
-0.29707506 0.11750479 2.0416288 4285039506
-0.26619595 -0.21101601 2.2115276 4290292116
-0.29165521 0.14969744 2.035038 4282867307
-0.2477676 -0.021623377 2.2560432 4283849560
-0.22503446 -0.32637286 2.173722 4289181890
-0.20227565 -0.22790541 2.1917851 4279047451
-0.20929307 -0.24135719 2.1543684 4279903787
-0.18238541 -0.19166787 2.1604037 4284640103
-0.18251809 -0.096722774 2.1168828 4283653467
-0.20409709 0.037278228 1.9721215 4288788935
-0.20272906 0.14685352 1.9401344 4286089618
-0.17412099 -0.37318254 2.0669441 4284380803
-0.16614413 -0.10868231 2.0631835 4287866544
-0.16559139 -0.36559859 2.065953 4280430646
-0.1884796 0.069587879 1.9505607 4279510576
-0.17739968 0.041730162 1.95162 4289249484
-0.16439819 0.1225406 1.9083636 4280301379
-0.14979258 0.060581699 1.9375775 4289052362
-0.11918912 -0.40691057 2.0486758 4287010979
-0.12450183 -0.32438153 1.9989676 4280234039
-0.13082112 0.072947428 1.9445508 4282936710
-0.08938393 -0.37095636 2.0284631 4283260258
-0.12709042 0.097913504 1.8810008 4288133322
-0.077787012 -0.37122548 2.0310607 4290957529
-0.081095733 -0.12072374 1.9837483 4288853181
-0.08752197 0.018738391 1.9582688 4284970357
-0.076578103 -0.12959294 1.9743506 4290102218
-0.10656135 0.099046938 1.8478895 4285700527
-0.071429119 -0.13635263 1.9646916 4290299853
-0.04798907 -0.31866792 2.0441954 4286550685
-0.052254476 -0.15290396 1.9606345 4290759890
-0.091625139 0.10701066 1.8295128 4286160564
-0.027230095 -0.24552679 2.0344815 4285958288
-0.022793982 -0.30550024 2.0472627 4289049273
-0.022251518 -0.28101858 2.0433426 4285563014
-0.01873141 -0.29048455 2.0474184 4279442720
-0.064416036 0.031095434 1.8906314 4278586127
-0.0063128769 -0.26999176 2.0507987 4284576635
-0.065251313 0.041683026 1.8560467 4288790221
-0.016598579 -0.19467631 1.9892441 4290826972
-0.050379276 0.014006431 1.8010228 4286158246
-0.049401689 0.10936899 1.763176 4279706153
0.055014722 -0.28629383 2.055819 4289576135
0.098766878 -0.26131594 1.9956019 4287603114
0.11674326 -0.28328416 2.0370007 4289379009
0.038707703 0.091595434 1.7045654 4280630085
0.041477889 0.072559662 1.7096694 4284579211
0.053479031 0.046034873 1.726608 4278982169
0.077571258 -0.1269318 1.7604569 4286485664
0.10937458 -0.17262815 1.8245288 4286813088
0.089891925 0.085470781 1.7336819 4279180580
0.088710651 0.10679211 1.662454 4286421419
0.10235268 0.11067379 1.6691062 4284318103
0.12338492 -0.031225111 1.7139267 4281417798
0.10154487 0.13277651 1.6631768 4282801512
0.11505555 0.10898127 1.6828709 4280629833
0.10040416 0.13803123 1.6506839 4278914831
0.11072658 0.11904979 1.6713506 4281813326
0.11266293 0.12915358 1.6719964 4283395715
0.14009319 -0.015522361 1.7228081 4282403657
0.16289622 -0.07461787 1.7502401 4284512648
0.15706551 -0.05235637 1.732312 4284248699
0.17019616 -0.11622325 1.7597398 4280891972
0.16909096 -0.10357542 1.7527437 4285564818
0.18690464 -0.1288522 1.7828784 4283524464
0.19517301 -0.12170002 1.7863654 4280758583
0.19557223 -0.11144068 1.7819326 4283919479
0.20502453 -0.11280435 1.7942786 4285631128
0.18943141 0.11929507 1.742615 4279112983
0.21634293 -0.040921666 1.794452 4281219386
0.19423488 0.13258596 1.7475427 4278915346
0.2239522 -0.070887692 1.8046412 4280297768
0.22548021 -0.094626062 1.807345 4283393386
0.22619179 -0.12600829 1.806522 4284511874
0.20752905 0.13105686 1.761953 4282932586
0.21542965 0.12409919 1.7710278 4281550415
0.25540626 -0.10508704 1.821386 4280034085
-0.27021071 -0.21864875 2.2347679 4290357908
-0.21427125 0.034333061 1.9960171 4283062883
-0.20452596 0.20166691 1.946294 4289177502
-0.13330317 -0.34261182 2.0241654 4289380300
-0.067343675 -0.098150916 1.9396813 4289116867
-0.068392582 0.041562252 1.8463261 4288790221
0.099136844 -0.23595624 1.9931442 4284315265
-0.067139938 -0.022380406 1.8413112 4284775304
-0.065223552 0.18787642 1.787325 4281286722
0.0020903545 -0.17023781 1.953651 4287341230
0.11963152 -0.084873922 1.737234 4287539639
-0.2314354 0.064131327 1.999619 4281285698
-0.23230359 -0.28202343 2.1848357 4283457632
-0.2067901 0.13214943 1.9557745 4283856006
-0.16282251 -0.38495299 2.0694001 4282470742
-0.15911207 -0.31981835 2.0700896 4280497727
-0.14118478 0.097250931 1.8991953 4289184978
-0.13945475 0.10819111 1.88241 4283460735
-0.15087816 -0.36683822 2.0645614 4281286214
-0.13790047 0.20589702 1.9008174 4282861380
-0.14917538 -0.39162695 2.0668275 4288196024
-0.13928837 0.054111928 1.9576901 4285435295
-0.132186 -0.38893259 2.0534229 4282733398
-0.126651 -0.28212953 2.0283408 4282933091
-0.11581172 0.10441986 1.8672373 4287344835
-0.11665624 -0.29709715 2.0148363 4286946985
-0.11609625 -0.35830265 2.0429754 4287538612
-0.10981824 -0.29949653 2.0018883 4282798933
-0.10494582 -0.090910055 1.9701482 4288721594
-0.087227002 -0.36124966 2.0130341 4284971913
-0.047130398 -0.21283215 1.9995539 4290233544
-0.035172872 0.1093711 1.752847 4283859354
-0.036389016 -0.27821642 2.0216691 4280891196
-0.033017509 -0.26061782 2.0231042 4280759866
-0.028574461 -0.33156607 2.0477505 4284382092
-0.026926206 -0.30221942 2.0314834 4288654514
-0.023560829 -0.18057284 1.9642426 4287209385
0.0029509258 -0.20597064 2.0072868 4284513420
0.021622643 -0.33179915 2.1148546 4282801255
0.031171599 -0.23236932 2.0000999 4282470224
0.02815252 -0.11056583 1.7740277 4286354336
0.032218508 -0.24619344 2.0009475 4283919221
0.046201754 -0.23437688 1.981676 4285236370
0.048378389 0.086956322 1.7145213 4278785047
0.060762409 0.068861872 1.726427 4283852905
0.067743957 0.091367923 1.732564 4283062875
0.07407853 -0.12633355 1.7510014 4286222493
0.089373745 -0.25916368 1.9617301 4284643719
0.077024512 0.12636168 1.6434942 4279705375
0.085640006 -0.1611868 1.7934026 4287538097
0.09508387 -0.23301277 1.9584924 4283787891
0.094597645 0.059559189 1.7270486 4279441944
0.10030433 0.06627544 1.7212774 4282931809
0.10321655 0.17284174 1.6534352 4279704345
0.10883535 -0.12416863 1.7370435 4284248190
0.12864092 -0.12154004 1.7321311 4285301905
0.13297562 -0.015033253 1.7048306 4282403657
0.13583478 -0.12755966 1.7397156 4286288286
0.14992848 -0.066018552 1.7161329 4281615952
0.1544309 -0.072896712 1.7229478 4284577153
0.16490692 -0.053908676 1.7239991 4279836704
0.1668001 -0.09323661 1.7302773 4281747276
0.16927889 -0.08174672 1.7314347 4281548354
0.1803994 -0.0994367 1.7438741 4281220678
0.18629336 -0.11603469 1.7575098 4279705635
0.18719229 0.015462342 1.7345393 4279508254
0.19775763 -0.12943318 1.7631897 4289116867
0.2085162 -0.091799177 1.7683898 4283393386
0.21553017 -0.10855934 1.7663851 4280890680
0.22248118 -0.099940933 1.7659308 4284116340
0.22506115 -0.081986405 1.7646971 4284314493
-0.30808124 0.073110394 2.119266 4281417541
-0.2587879 -0.016449327 2.2476814 4283127903
-0.25634107 -0.22201473 2.206543 4279113755
-0.25047189 0.039632119 2.0353911 4289183692
-0.22919026 -0.044852871 2.237309 4283917415
-0.20835163 -0.093818478 2.2305558 4283522398
-0.21560648 -0.32640305 2.1529856 4285497995
-0.20921519 -0.33136442 2.1315181 4283521883
-0.20880432 -0.31795281 2.1324062 4282864726
-0.19681023 -0.12525509 2.2102706 4290358682
-0.19982353 -0.32512301 2.1262925 4282996312
-0.20257671 -0.058001641 2.0764008 4288656576
-0.18095046 -0.23547958 2.120779 4283128412
-0.17732726 -0.35529795 2.0823607 4282272333
-0.17515923 -0.36632028 2.0767777 4286551455
-0.17066649 -0.34931821 2.074918 4280955960
-0.16959739 -0.31556129 2.0777705 4282864728
-0.16445094 -0.34050342 2.0738595 4281746247
-0.14231767 -0.28972286 2.0467424 4285103227
-0.13958435 -0.27942973 2.0473812 4279377960
-0.14836413 0.1166859 1.8869783 4284514450
-0.12543958 -0.37568936 2.0471416 4282339415
-0.14036016 0.074537084 1.9337867 4288264648
-0.1012577 -0.36868751 2.0354688 4282011477
-0.10165125 -0.18036667 2.0075583 4284639847
-0.099293657 -0.31470692 1.9815091 4283588964
-0.097114325 -0.14202136 1.9864833 4284179553
-0.083376534 -0.3861506 2.0484872 4282601814
-0.07337863 -0.17018403 1.9981169 4285560688
-0.082582586 -0.016769759 1.8985642 4281747278
-0.057946466 -0.11512086 1.9352833 4289642438
-0.026599938 -0.33348969 2.0574336 4284447885
-0.014478429 -0.3472625 2.0764704 4290496718
-0.025378626 -0.19922909 2.0210559 4290233805
-0.02109413 -0.26257372 2.0354023 4288852665
-0.00065208186 -0.34737563 2.0939064 4289050303
-0.053092048 0.021131292 1.8178625 4285038478
-0.056016393 0.10223831 1.7827852 4282604644
0.020989802 -0.34160861 2.1289718 4281549125
0.026811294 -0.33158156 2.1335173 4290299854
0.033220824 -0.33329964 2.1458218 4290168270
0.032125968 -0.32238504 2.1325543 4282667864
0.023581078 -0.20429423 2.0150666 4290694871
0.006022674 -0.09859556 1.8802034 4288526019
0.045188371 -0.20796476 2.0040467 4282080624
0.048671678 -0.24510376 1.9998806 4283063393
0.008001917 -0.089091375 1.7831831 4286222750
0.069283582 -0.1902014 1.9839313 4290102993
0.088943131 -0.28705889 1.9997492 4290036943
0.015369598 0.18839258 1.6944284 4281023296
0.092913859 -0.23481937 1.9768629 4284249473
0.11234003 -0.28088248 2.025594 4289904582
0.099425249 -0.2452393 1.9769193 4283918189
0.10700943 -0.25178993 1.9816356 4280100651
0.0578865 0.10607438 1.6782726 4286684074
0.087480791 0.060691793 1.7345908 4279573014
0.13320695 -0.18015091 1.8385254 4286879136
0.081346139 0.1436719 1.6476233 4279243281
0.14701658 -0.18061988 1.8493218 4282339934
0.13960946 -0.12867346 1.7508796 4285827992
0.12113146 0.12712048 1.6770083 4278914833
0.15404259 -0.12208274 1.7462468 4288986054
0.15223216 -0.052278299 1.7223225 4284380285
0.15138319 0.14390065 1.6992158 4282209119
0.15633921 0.1255163 1.7128779 4279968806
0.17177352 -0.09437006 1.7441561 4281878863
0.17456225 -0.082801573 1.7461264 4281679939
0.17004901 0.12166511 1.7213798 4283919740
0.18664911 -0.08199317 1.7577498 4281878346
0.17715248 0.13209213 1.7248416 4284118145
0.19625367 -0.0098855328 1.7612915 4281812553
0.18585038 0.13187277 1.7308253 4278849553
0.19605213 0.072642699 1.7557862 4281549385
0.19671476 0.008883968 1.7537025 4279836960
0.2072347 -0.1144746 1.7812217 4281153850
0.2073184 -0.040452123 1.776438 4281087799
0.21461645 -0.070102602 1.7860594 4280165924
0.21696188 -0.12468968 1.7881798 4284511875
0.21831977 -0.082908526 1.7873616 4284577148
0.20650597 0.12303371 1.7534389 4281419087
0.20705961 0.085543871 1.7550874 4282075983
0.2161952 -0.05456233 1.7793533 4287342260
0.21308988 -0.014617194 1.7618916 4280956473
0.22342715 -0.11062341 1.7872205 4280956474
0.21917666 -0.029393366 1.7688181 4285367955
0.2322153 -0.067364901 1.7853537 4280363820
-0.27227592 0.20346627 2.0530505 4289111710
-0.18631358 -0.36765626 2.1262667 4289116871
-0.19254801 0.17192639 1.9319704 4282338643
-0.10005493 -0.33813113 1.9919043 4283259748
-0.11584105 0.12981836 1.844803 4280958278
-0.08004161 0.11623533 1.8027381 4287671486
0.11790157 -0.23413907 2.0378571 4280101938
0.14983264 -0.085640348 1.7352931 4279639840
0.16284393 0.096435517 1.7651765 4283259740
0.13848926 0.14625964 1.6926215 4281878351
0.20674562 -0.0049670986 1.7671689 4284839807
0.21964297 -0.093975268 1.7980819 4283327336
0.21910387 -0.04221246 1.7820243 4284249990
-0.1443321 -0.32456714 2.0383129 4280695104
-0.10665694 0.0075939987 1.9034417 4279312681
0.05193172 -0.23696104 2.0047266 4285039247
-0.13500969 -0.074608043 1.9982039 4289181631
-0.30751684 0.15887572 2.0552602 4283591803
-0.2609131 0.024455246 2.0440447 4287341490
-0.16865268 -0.056336232 2.0261865 4289050817
0.047841575 -0.10955993 1.7713662 4288722625
-0.31033888 0.11830861 2.0559103 4281284923
-0.17561378 -0.19320092 2.1934946 4284640103
-0.16785398 -0.36585906 2.0540919 4280430646
-0.071680076 -0.098848261 1.9487363 4288852922
0.088290863 -0.092639871 1.7538681 4287605173
0.075304903 -0.012644998 1.7152753 4282141777
0.064478181 0.12379949 1.6510345 4286159274
-0.2205589 -0.18898287 2.2347541 4290358166
-0.16984397 -0.19369055 2.2027109 4284573538
-0.19280687 0.13841917 1.9268457 4283396743
-0.15239982 0.17881754 1.8781071 4282929234
-0.14116195 0.11096981 1.8714637 4282737265
-0.024327846 -0.15117984 1.9519135 4285037700
-0.0078991111 -0.16243029 1.9559995 4285367185
0.026247215 -0.13159846 1.8171418 4286025371
0.0344938 -0.081696838 1.768176 4285301904
0.052674882 -0.12132798 1.7832978 4285301648
0.040670313 -0.036265481 1.7389885 4284840583
0.052336048 0.0010642627 1.7197102 4282010447
0.063785106 0.021836091 1.720547 4282537049
0.098328598 -0.090797551 1.7542404 4287407536
0.11495985 -0.10310744 1.7564764 4281022266
0.11761004 -0.093646802 1.7541059 4282668380
0.11413375 -0.075114809 1.74362 4283987849
0.12322557 -0.041960981 1.7283903 4287078829
-0.34508044 0.13999036 2.1113703 4280430647
-0.34305847 0.11574073 2.1078417 4285037709
-0.34075949 0.12624127 2.0961626 4285171096
-0.26532763 -0.21959448 2.2490389 4290292115
-0.32750857 0.17662859 2.0753498 4282208085
-0.32578275 0.14780252 2.0734682 4280825407
-0.32130066 0.16214667 2.0661962 4284050293
-0.31530187 0.097602129 2.0595012 4286026919
-0.3096064 0.10815547 2.0521994 4285631129
-0.30680144 0.17491548 2.0564182 4281879119
-0.30667305 0.13394099 2.0470169 4283459960
-0.27290881 0.035793215 2.1322463 4287867580
-0.30409595 0.15756044 2.0453188 4280627511
-0.29815254 0.14064634 2.0377362 4281220420
-0.24542181 -0.27043799 2.1563108 4283852132
-0.29345736 0.11905022 2.0323386 4281548872
-0.28618082 0.12417544 2.0248113 4284647067
-0.28441563 0.10731779 2.0245907 4281221450
-0.2771233 0.12554808 2.0141516 4281946463
-0.21083631 -0.2252049 2.1674657 4278981915
-0.26852092 0.093617402 2.0149913 4287935172
-0.27080911 0.14892466 2.0056567 4286091420
-0.26503694 0.10555437 2.0055044 4281749342
-0.26569599 0.13200043 2.0004184 4283792014
-0.26298898 0.11948305 2.0007055 4280036919
-0.2622484 0.14894982 1.994905 4280431159
-0.25295594 0.13391033 1.9872177 4279707696
-0.25170097 0.17327076 1.9898959 4282734944
-0.24307121 0.15688677 1.9767846 4284576893
-0.24036211 0.13248348 1.9737418 4283265670
-0.23434219 0.062729746 1.9856412 4280693561
-0.23798369 0.14901319 1.9709946 4280758323
-0.23373434 0.18125978 1.9696729 4281614659
-0.21934783 0.057929054 1.9727018 4285565333
-0.20791987 0.02453284 1.9806162 4286354853
-0.20525673 0.15567961 1.9359152 4281481531
-0.20037729 0.11488797 1.9354385 4280366657
-0.18875228 0.15174226 1.9160651 4281614404
-0.18603958 0.13773938 1.9134641 4280695364
-0.18478173 0.12228881 1.9156103 4280300867
-0.18381923 0.1722928 1.9068781 4279903788
-0.17632787 0.10788179 1.9090545 4282013799
-0.17553878 0.11768404 1.9049993 4284384152
-0.12174097 -0.32838467 2.0112877 4280102453
-0.17525358 0.18313016 1.8993751 4281878349
-0.11269883 -0.33067372 2.0236182 4281089605
-0.16941196 0.12188122 1.8964977 4280367171
-0.16362709 0.10455049 1.896544 4288329926
-0.16325843 0.15609868 1.8849667 4281548610
-0.093570814 -0.211806 2.0196643 4281220674
-0.15838875 0.1404122 1.8843172 4279971127
-0.15041073 0.1644426 1.8737046 4280365625
-0.066290855 -0.27051625 2.0317738 4286020980
-0.13489886 0.11323552 1.8616672 4280893255
-0.11672707 0.17555077 1.8524441 4280430388
-0.11559211 0.15198006 1.839355 4283392363
-0.052511141 -0.13563269 1.9553788 4289181630
-0.051317479 -0.11655366 1.953348 4289773510
-0.11111816 0.16374597 1.8345826 4282865763
-0.079342604 -0.0071107829 1.8754067 4285566107
-0.030722748 -0.1380394 1.9484136 4290299855
-0.070344672 -0.03961049 1.8707329 4285892756
-0.070775248 -0.0026188144 1.8601531 4285500315
0.012806306 -0.15369275 1.8808078 4286224037
-0.002031059 -0.07304766 1.7913134 4284645262
0.0040068156 -0.069114335 1.7838651 4284578184
0.016686445 -0.07542944 1.7782708 4284907149
0.015874023 -0.062027846 1.7702168 4282998381
0.029853411 -0.087771431 1.7799126 4284906887
0.037777301 -0.11212843 1.7897954 4286222493
0.051685039 -0.12580472 1.7946546 4285631898
0.035534725 -0.071166538 1.7678322 4284577150
0.050564706 -0.10754778 1.7808657 4287473072
0.022174975 0.051167298 1.7329043 4287804614
0.063485876 -0.10142783 1.7752403 4287407022
0.0706295 -0.11485225 1.7764057 4284052096
0.037675641 0.0098864865 1.7266619 4284184708
0.043979257 0.03480567 1.730036 4281748563
0.055146579 -0.031506315 1.7341979 4284315011
0.08732187 -0.11603764 1.7677828 4288130743
0.088674538 -0.096046619 1.7637435 4287078572
0.031980354 0.10301773 1.6753902 4286619568
0.10897724 -0.12955131 1.7766895 4285631126
0.099963926 -0.073153317 1.7501581 4285038734
0.11984636 -0.12660293 1.773845 4283262324
0.12132654 -0.11044452 1.7648348 4287407538
0.12336149 -0.098714732 1.7614845 4286618279
0.13957284 -0.12292089 1.771697 4284578443
0.13194281 -0.092367947 1.7581738 4282799707
0.11882768 -0.017471539 1.7266637 4280692785
0.14463679 -0.085186772 1.7581468 4286157213
0.12435498 -0.025760133 1.7290792 4285170316
-0.34336472 0.13137095 2.1618533 4281088063
-0.34992361 0.17396399 2.1466167 4282206545
-0.34513286 0.11295509 2.1527958 4280694083
-0.34146321 0.099390239 2.1594441 4286946737
-0.3442888 0.12481989 2.1515625 4280164642
-0.34756431 0.13539365 2.1199236 4284116864
-0.2690374 0.030272175 2.2981727 4278915350
-0.33018622 0.20668013 2.1586437 4282334268
-0.34720656 0.13134581 2.1064699 4282997352
-0.34684715 0.16699564 2.1041052 4282011486
-0.29543671 -0.25714773 2.1927624 4282536017
-0.28891551 -0.2811957 2.2058334 4287801010
-0.34344366 0.17909968 2.0982385 4282208086
-0.3402777 0.099170819 2.0979698 4284779690
-0.26547918 -0.22713004 2.2565742 4279112213
-0.25819761 0.043721173 2.2690647 4282536539
-0.26659545 -0.23642099 2.2323935 4279243541
-0.33622637 0.16743845 2.0801122 4279442212
-0.33410263 0.15331836 2.080771 4285040028
-0.31827205 0.055650465 2.0976698 4286222499
-0.25198805 -0.0064287623 2.2430935 4284049516
-0.33105588 0.1597143 2.0711646 4280364082
-0.29978767 0.074139312 2.134706 4281022270
-0.31483927 0.087141193 2.0996938 4288987862
-0.31774879 0.15333945 2.0557961 4280430646
-0.24005511 -0.3274793 2.2005055 4290233805
-0.28118065 0.035140824 2.1181805 4288196545
-0.311638 0.16791233 2.0492446 4279046677
-0.30199316 0.065271661 2.0569189 4281878862
-0.30402687 0.1671364 2.0416136 4282472028
-0.23444682 -0.0073339455 2.1719446 4280825405
-0.22596855 -0.021767424 2.1780453 4284244837
-0.1872865 -0.12136612 2.2487855 4290358682
-0.29446641 0.16478115 2.0309064 4281485648
-0.29153809 0.14147925 2.0245285 4279969067
-0.21802719 -0.034115899 2.1560795 4282074956
-0.19774023 -0.37014326 2.1720142 4284379002
-0.28064629 0.14739496 2.0129895 4283261036
-0.18758754 -0.16360021 2.1745691 4279376156
-0.20418805 -0.24066737 2.1353545 4283457378
-0.2513794 0.023896385 2.0315306 4286748581
-0.26103401 0.12682714 1.9911361 4280300090
-0.25777325 0.10645377 1.9956313 4282474356
-0.25483778 0.11604773 1.989164 4281881957
-0.19805638 -0.35733646 2.0843279 4286683044
-0.18838818 -0.078861326 2.0980084 4284507746
-0.17884967 -0.38662165 2.1063163 4288392633
-0.24664024 0.11439252 1.9808381 4280895069
-0.24873327 0.14139684 1.9759622 4280891709
-0.24827327 0.16696171 1.976478 4279772459
-0.22730365 0.024675747 2.0034769 4287868348
-0.17090243 -0.32356721 2.0627961 4282733399
-0.22461513 0.11140433 1.956732 4280630086
-0.22643496 0.14880221 1.9517707 4280429617
-0.22531895 0.13778293 1.9512545 4280957764
-0.14679381 -0.010330596 2.0832074 4288656577
-0.21883626 0.15088958 1.9452934 4285894555
-0.21743059 0.16992055 1.9473969 4282997604
-0.20602979 0.20627515 1.9603593 4289111966
-0.15721732 -0.10567158 2.0308621 4289445577
-0.21201125 0.16682856 1.938503 4282799448
-0.15093885 -0.11226279 2.0248983 4289905354
-0.14022161 -0.19494043 2.0409353 4280166702
-0.19925202 0.17426439 1.9243494 4283324764
-0.19804883 0.14806774 1.9242253 4281351748
-0.1924172 0.16271009 1.9137948 4281022781
-0.17385329 0.026204985 1.9417593 4288393406
-0.10800884 -0.26173961 2.0451868 4283786342
-0.10414047 -0.3328023 2.0352187 4280826176
-0.18136044 0.14571825 1.9034865 4280430388
-0.17382866 0.13992329 1.896611 4283462536
-0.17330386 0.15417634 1.8940314 4280890943
-0.17200805 0.16493084 1.8926238 4281087801
-0.10893886 -0.1043832 1.9911649 4284049001
-0.11486813 -0.075335711 1.9782202 4288787645
-0.1036419 -0.12585627 1.9952754 4288917427
-0.16969705 0.17496376 1.8824664 4281548351
-0.076387525 -0.38315514 2.0234196 4290093448
-0.098665819 0.022308217 1.9718852 4284971385
-0.15272211 0.10692393 1.883532 4287736761
-0.15224169 0.13148448 1.8759382 4280364852
-0.053246174 -0.24459022 2.0236638 4287075482
-0.045130346 -0.28244057 2.0345333 4285630353
-0.073842041 -0.1382504 1.9797208 4286023567
-0.03782494 -0.25779277 2.034035 4281351231
-0.037523545 -0.22947159 2.0317357 4285299843
-0.082763262 -0.099097751 1.9560077 4287866543
-0.082674585 -0.08694429 1.9535836 4283720291
-0.014289098 -0.30770105 2.0588415 4280496439
-0.015498174 -0.25179151 2.0484507 4285366666
-0.13774718 0.13399117 1.8607131 4282935159
-0.095654652 0.070764303 1.922307 4288001479
-0.13484645 0.14581713 1.8584282 4279902757
-0.083790258 -0.048767161 1.9301345 4287866543
-0.047518261 -0.16136874 1.9780614 4286682010
-0.128382 0.15354338 1.8509727 4279770915
0.0069658314 -0.24058275 2.0509229 4285892755
-0.0046868953 -0.20472836 2.0308838 4285827734
-0.03709453 -0.16655383 1.9770491 4286748320
-0.12483352 0.14371471 1.8445837 4283261805
-0.040337812 -0.15082905 1.9609029 4286552229
-0.075471215 -0.0069348454 1.8987483 4279904303
-0.071294196 -0.03908278 1.8985738 4284578959
-0.11375852 0.17498092 1.8312771 4283325795
-0.051987771 0.032504614 1.9130725 4278784019
-0.10798756 0.18161254 1.824532 4280428844
-0.071107216 0.027977977 1.8501117 4278983202
0.0083771665 -0.16850378 1.9647462 4287538352
-0.081989296 0.21240015 1.8299454 4289111710
-0.096414931 0.15780181 1.8065999 4279901986
0.015569932 -0.16346224 1.9183722 4285828764
-0.037451811 -0.050348472 1.8230389 4285498772
-0.059518874 0.06363105 1.7894764 4280893516
-0.053068221 0.02484668 1.7968158 4285565590
-0.099666029 0.078932889 1.7283069 4280694848
-0.041765198 0.003567741 1.7917643 4284710028
-0.033460826 -0.028574783 1.8023766 4285367187
0.021496428 -0.14253181 1.8581356 4286223265
0.03374739 -0.13210191 1.8251059 4286091164
0.022810578 -0.10604894 1.8080058 4284841358
-0.011565274 0.013358735 1.7562839 4286421157
0.019395499 -0.082883149 1.7899717 4289051846
-0.00060331076 -0.024478285 1.7640593 4284972939
-0.014247748 0.093740776 1.7360638 4279575596
0.0022375318 0.002543411 1.7505193 4282800995
0.027593268 -0.077886142 1.7817773 4288920003
-0.010793651 0.070588812 1.7256513 4279443238
-0.0062774518 0.055536725 1.7262443 4284249996
0.011582818 0.0094415266 1.7434884 4284251018
0.04364733 -0.082108818 1.7775831 4285301647
0.062609926 -0.12178618 1.7934606 4284973198
0.043378394 -0.063766465 1.7676214 4285827476
0.020765159 0.01311676 1.7384197 4283528583
0.061650019 -0.10990196 1.7856423 4288591039
0.0030040673 0.060640182 1.7127625 4283855749
0.086536385 -0.1492705 1.8154275 4287208873
0.049568493 -0.036315799 1.7479421 4284972426
0.071087509 -0.092005931 1.7729566 4287999417
0.08056324 -0.097748108 1.7761203 4287999674
0.083708204 -0.11446839 1.7785233 4284578183
0.053158022 0.028470492 1.730787 4279377700
0.094574645 -0.11598629 1.7750266 4287801522
0.05687632 0.0078261159 1.728497 4281417022
0.067022629 -0.0060652569 1.7277213 4283128673
0.072641976 0.036776744 1.7338799 4281681482
0.10645354 -0.1146854 1.7730099 4280890679
0.1064982 -0.10302631 1.7718375 4286947501
0.072161183 0.022701489 1.7287608 4282405206
0.10283249 -0.08882115 1.7643584 4287210930
0.12356558 -0.13071094 1.7861538 4288854468
0.028692869 0.14921306 1.671571 4282207575
0.055265717 0.10181329 1.6990134 4286225585
0.11508211 -0.099583641 1.7671279 4286947501
0.12612291 -0.11508745 1.773751 4284447884
0.087231651 -0.011944836 1.7267928 4282142291
0.045041773 0.098676533 1.6770606 4288394947
0.041069154 0.10811283 1.6713626 4284842128
0.035142571 0.13882248 1.6631922 4282275684
0.096329644 -0.0028309403 1.7261645 4283787890
0.1355428 -0.10768514 1.7702898 4283196272
0.12590465 -0.074461475 1.7548672 4283724933
0.048834905 0.11564527 1.6631242 4286355367
0.10693264 -0.018376341 1.7287922 4282470229
0.046820421 0.13846107 1.6586709 4284050802
0.089344926 0.11160851 1.7063166 4284250508
0.16083948 -0.12462906 1.7877123 4288525504
0.050990976 0.12558071 1.6588398 4284775302
0.14526057 -0.095270984 1.7651482 4287341488
0.063275918 0.11254333 1.6620116 4281287758
0.15662852 -0.086634904 1.763828 4280298544
0.061387267 0.13430162 1.6553571 4283525235
0.060573556 0.16547304 1.6538038 4283390556
0.065669015 0.15333995 1.6532063 4280823597
0.07560084 0.11975425 1.6611518 4284515224
-0.32820725 0.087141663 2.1217563 4289381077
-0.32419932 0.11370845 2.099956 4281748568
-0.31977037 0.1374771 2.0896311 4281087545
-0.31413418 0.122898 2.0882022 4281087802
-0.31192476 0.13639951 2.082233 4280692273
-0.31020185 0.14887838 2.0816188 4280891454
-0.30867973 0.1103323 2.0819747 4285499287
-0.30804715 0.1699347 2.0798552 4279046677
-0.30737066 0.15670317 2.0760436 4283524981
-0.29957911 0.13596682 2.0681832 4281417539
-0.29887328 0.10942754 2.0704551 4282010451
-0.2974059 0.11954388 2.0666947 4284447628
-0.29611027 0.14255162 2.059083 4281022784
-0.29933354 0.06507124 2.0845194 4284841613
-0.29305375 0.10400163 2.0641844 4283459706
-0.29108265 0.15683615 2.0608625 4279969582
-0.28970432 0.11194552 2.0585091 4285435038
-0.28809261 0.12181734 2.0573661 4283854974
-0.28443855 0.13860288 2.050585 4284644232
-0.28084534 0.15052544 2.0512815 4283590517
-0.27845925 0.12796225 2.0441597 4284448141
-0.2761935 0.13733098 2.0399687 4280694332
-0.27358985 0.10866969 2.0418298 4285172638
-0.27194604 0.14513633 2.035094 4283855232
-0.2679669 0.15661068 2.0289428 4279772201
-0.26645339 0.13042957 2.0274909 4284909725
-0.26556945 0.14270318 2.0277319 4283459705
-0.2626797 0.10755692 2.0313354 4281946207
-0.26075929 0.12139706 2.0254269 4280563520
-0.28595421 -0.24796601 2.2246063 4282405720
-0.2612679 0.025810918 2.0658379 4287407283
-0.27714059 -0.22783592 2.2189844 4278981142
-0.24900241 0.17442219 2.0130053 4282800480
-0.24488379 0.12178359 2.0072033 4284843417
-0.24301016 0.14553937 2.007009 4280693559
-0.24084371 0.15539192 1.9999403 4283394423
-0.23764089 0.13951343 1.9970678 4281089606
-0.23774183 0.11338888 2.0002079 4284780196
-0.25671595 -0.23555757 2.1865103 4283984233
-0.23203307 0.17938931 1.9918077 4281155140
-0.22904627 0.12325089 1.9889207 4284187031
-0.22878765 0.15549254 1.9882351 4285828765
-0.24926786 -0.26661164 2.1865294 4287735985
-0.22721475 0.03937773 2.0251803 4288987083
-0.21998598 0.13929413 1.9781786 4281023814
-0.21949899 0.10763516 1.9807181 4286291377
-0.22059935 0.054798376 1.9979461 4283922572
-0.21264644 0.17082691 1.969381 4283129445
-0.21149527 0.15686123 1.9672468 4280298544
-0.21391301 0.063810565 1.9902322 4281286469
-0.20728736 0.12678011 1.9662669 4280497468
-0.20435151 0.14191668 1.9614842 4281483073
-0.20549615 0.049990367 1.9823437 4289840591
-0.20156319 0.068701848 1.9749711 4280300350
-0.20004906 0.10389829 1.9611264 4283001985
-0.19745684 0.13236152 1.9516772 4280496697
-0.19319198 0.14929412 1.9447379 4281285954
-0.19307505 0.067826115 1.9678844 4283328881
-0.19240364 0.035903621 1.9789009 4288459967
-0.18750854 0.15929645 1.9371473 4280363566
-0.20387499 -0.33967775 2.11903 4283587419
-0.18834916 0.09731587 1.9651964 4287739339
-0.1839083 0.13161704 1.9362128 4282410881
-0.17852727 0.11165734 1.9324929 4284779682
-0.19211088 -0.3431116 2.1004491 4287010974
-0.19264726 -0.35890618 2.1080859 4286617508
-0.17851715 0.076557659 1.9584199 4280564807
-0.17491509 0.17560007 1.9199792 4282800994
-0.17623606 0.040453915 1.9644023 4289643470
-0.16604988 0.09184026 1.9459516 4283656823
-0.17134216 -0.38234603 2.07757 4282733400
-0.16773713 -0.17556711 2.0783162 4281351747
-0.16620931 -0.30485499 2.070765 4281944653
-0.15154235 0.10626876 1.9042708 4288196540
-0.14006448 0.12891416 1.8901526 4280956729
-0.14609949 -0.39952639 2.0733826 4289839821
-0.14040132 -0.13008893 2.0580857 4287997612
-0.12421224 0.20830736 1.8979508 4282664001
-0.12043992 0.093833759 1.9129424 4279707695
-0.11362804 0.11173333 1.8529259 4283264644
-0.1134434 0.18526345 1.8522768 4281286982
-0.097862341 -0.36034063 2.0200355 4289446350
-0.075387992 0.1650006 1.8031547 4279705635
-0.081711866 -0.29589528 2.0099146 4279180580
-0.071061336 0.18299107 1.7986463 4279442464
-0.067172095 0.027116265 1.8373094 4280300091
-0.069458 -0.26899233 2.0160246 4285758067
-0.055588271 -0.32178491 2.0255673 4281548351
-0.05362099 -0.30542159 2.024226 4284906118
-0.05173967 -0.27731809 2.0151074 4289905097
-0.051111683 -0.24432433 2.0055149 4285365377
-0.047616918 -0.25793433 2.0060606 4280298801
-0.046224751 -0.15779689 1.9491063 4290563026
-0.044181235 -0.29823992 2.0214312 4284181880
-0.043119244 -0.22946136 2.0076401 4285300101
-0.045014441 -0.39083734 2.1217041 4290498010
-0.035888273 -0.26777047 2.014828 4288261044
-0.035750434 -0.35181999 2.0631979 4291943135
-0.030863332 -0.24263266 2.0137269 4285760909
-0.030237874 -0.31328806 2.0271382 4283986558
-0.025745166 -0.2690745 2.021615 4281023813
-0.025341811 -0.1999197 1.9917839 4285367181
-0.022818126 -0.28685412 2.0235655 4279509029
-0.022607662 -0.29749218 2.023212 4283457895
-0.022306696 -0.25196683 2.0171511 4285234824
-0.021596812 -0.19059657 1.9672972 4290892249
-0.019583015 -0.31174824 2.0279326 4286288027
-0.017960098 -0.33427826 2.0512769 4290300113
-0.015204282 -0.31917745 2.0354085 4287998130
-0.013930496 -0.16204393 1.9302449 4285433234
-0.010836795 -0.18395546 1.9603682 4288261303
-0.010708412 -0.29686385 2.0369396 4281221190
-0.0078434516 -0.32803294 2.0555184 4289379012
-0.003623443 -0.3156651 2.0600383 4287933111
-0.0035981212 -0.33354476 2.0707352 4286815144
-0.001726932 -0.24137957 2.0128946 4285826962
-1.7023454e-05 0.1734966 1.6857948 4281086770
