# .PCD v0.7 - Point Cloud Data file format
VERSION 0.7
FIELDS x y z normal_x normal_y normal_z curvature
SIZE 4 4 4 4 4 4 4
TYPE F F F F F F F
COUNT 1 1 1 1 1 1 1
WIDTH 594
HEIGHT 1
VIEWPOINT 0 0 0 1 0 0 0
POINTS 594
DATA ascii
-0.11302631 -0.14545274 2.3885181 -0.37600416 0.28061154 -0.88310701 0.15389492
-0.11208032 -0.1877605 2.3728342 -0.30602571 0.59649658 -0.74198383 0.072403669
-0.10759503 -0.20365144 2.3667986 -0.067811102 0.44768316 -0.8916173 0.039657529
-0.099402599 -0.16606124 2.38276 -0.068025768 0.59151226 -0.80342126 0.099019945
-0.0913762 -0.16305396 2.3852596 0.097031742 0.67108703 -0.7350015 0.093798339
-0.08906813 -0.17767873 2.3777878 0.020845108 0.37407616 -0.92716372 0.052409343
-0.088902496 -0.18480048 2.3746891 -0.10159697 0.3149513 -0.94365442 0.062464777
-0.088900849 -0.17779484 2.3774319 -0.099834122 0.31550261 -0.94365841 0.056137618
-0.088900849 -0.17779484 2.3774319 -0.099834122 0.31550261 -0.94365841 0.056137618
-0.086750306 -0.19952339 2.3693202 0.067456707 0.28543326 -0.95602167 0.021828856
-0.084230967 -0.18505286 2.375668 -0.10709435 0.3607277 -0.92650217 0.071032345
-0.083043978 -0.18022981 2.3774848 -0.17606746 0.25655547 -0.95035762 0.057137571
-0.079907611 -0.18669276 2.3758986 -0.049429294 0.17755078 -0.98286957 0.028785851
-0.079907611 -0.18669276 2.3758986 -0.049429294 0.17755078 -0.98286957 0.028785851
-0.079807416 -0.18682249 2.3756769 -0.049429294 0.17755078 -0.98286957 0.028785853
-0.079807416 -0.18682249 2.3756769 -0.049429294 0.17755078 -0.98286957 0.028785853
-0.077543907 -0.19018972 2.3744879 -0.049429271 0.17755084 -0.98286951 0.028785923
-0.077543907 -0.19018972 2.3744879 -0.049429271 0.17755084 -0.98286951 0.028785923
-0.071117088 -0.18760335 2.3772902 0.041279923 0.34029827 -0.93941104 0.0033002824
-0.069446556 -0.19360292 2.3725367 0.0030828945 0.23921032 -0.97096282 0.028337521
-0.069446556 -0.19360292 2.3725367 0.0030828945 0.23921032 -0.97096282 0.028337521
-0.066840939 -0.18342425 2.3760581 0.025101317 0.35744551 -0.93359655 0.0020729685
-0.064251557 -0.19350289 2.3731723 0.025101315 0.35744548 -0.93359667 0.0020729685
-0.063785799 -0.18738967 2.374958 0.025101308 0.35744554 -0.93359661 0.0020729683
-0.062931351 -0.17286421 2.3809159 0.034281347 0.46595943 -0.8841418 0.0089417333
-0.061423976 -0.17843011 2.3791506 0.018699393 0.48451188 -0.87458479 0.0078300359
-0.061016381 -0.18449149 2.3767281 0.018699359 0.48451206 -0.87458473 0.0078300815
-0.05398019 -0.18435052 2.3779268 0.086554758 0.47104228 -0.87785393 0.025481233
-0.052699033 -0.043775216 2.3691466 0.91655445 -0.39965069 -0.014395641 0.20653029
-0.048477598 -0.13970406 2.3991499 0.035891619 0.60025877 -0.79900014 0.10996912
-0.045325398 -0.18229854 2.3782749 0.084905975 0.4023028 -0.91156095 0.022655293
-0.045325398 -0.18229854 2.3782749 0.084905975 0.4023028 -0.91156095 0.022655293
-0.043578524 -0.12661155 2.4038548 -0.12320382 0.87607348 -0.46617162 0.11566205
-0.043578524 -0.12661155 2.4038548 -0.12320382 0.87607348 -0.46617162 0.11566205
-0.041732714 -0.18426988 2.3779066 0.084906004 0.40230259 -0.91156107 0.022655196
-0.041380759 -0.15799792 2.3900018 0.082131065 0.42129439 -0.90319741 0.034797799
-0.037857071 -0.18377043 2.3795154 0.024106381 0.42163262 -0.90644628 0.030782113
-0.037491459 -0.18362691 2.3787422 0.024106376 0.42163262 -0.90644634 0.030782137
-0.032872617 -0.13913387 2.3978956 0.13345949 0.68107915 -0.71994436 0.15039094
-0.030166613 0.05910553 2.2653344 0.66200513 0.38443077 -0.64339906 0.013687682
-0.030166613 0.05910553 2.2653344 0.66200513 0.38443077 -0.64339906 0.013687682
-0.031162214 -0.095212631 2.4236782 -0.17910741 0.71304142 -0.67785871 0.12772389
-0.030597959 -0.15124965 2.3925583 0.06283883 0.40760678 -0.9109928 0.12188187
-0.027741911 -0.049746271 2.3714862 0.42824492 -0.35856196 -0.82948148 0.23812479
-0.025317512 -0.13966767 2.3993738 0.14621887 0.71262306 -0.68614024 0.14446907
-0.022849642 -0.17313315 2.3832014 -0.033278439 0.41333383 -0.90997124 0.029449206
-0.020272281 -0.15869033 2.3909593 0.04837624 0.5331983 -0.84460598 0.033353228
-0.020272281 -0.15869033 2.3909593 0.04837624 0.5331983 -0.84460598 0.033353228
-0.016358323 -0.1699525 2.3859317 -0.025359187 0.40950298 -0.91195631 0.033014107
-0.015630042 -0.13047899 2.379884 0.039241187 0.42773166 -0.90305358 0.12075253
-0.010622142 -0.16808127 2.3873184 -0.03942056 0.42866859 -0.90260136 0.046997204
-0.0087613249 -0.17376024 2.3883932 0.039677322 0.42987064 -0.90201825 0.018469397
-0.0083738761 -0.15524043 2.3923738 -0.10049308 0.54496181 -0.83241689 0.054705106
-0.0041843769 -0.04358229 2.3828151 0.46096763 -0.27318692 -0.84432083 0.18406098
-0.0041843769 -0.04358229 2.3828151 0.46096763 -0.27318692 -0.84432083 0.18406098
-0.003437737 -0.16336331 2.3902721 0.01444084 0.39374086 -0.91910803 0.043314397
-2.151936e-05 -0.14915188 2.3954682 -0.087426648 0.53401488 -0.84094274 0.037583891
3.5043035e-05 -0.16559498 2.3869419 0.018068181 0.3733595 -0.92751074 0.041831087
0.0013735505 -0.14608143 2.3978686 -0.10502726 0.585823 -0.80360484 0.033393104
0.0013735505 -0.14608143 2.3978686 -0.10502726 0.585823 -0.80360484 0.033393104
0.0048986091 -0.14119929 2.3997874 -0.14890069 0.63737041 -0.75603408 0.042066846
0.006982605 -0.14357761 2.3991501 -0.13073708 0.62081385 -0.77297997 0.049854949
0.0071183061 -0.066023394 2.4283669 -0.00071193185 -0.80758637 -0.58974886 0.19429325
0.0073152757 -0.16529818 2.3870153 0.070174009 0.36116302 -0.92985851 0.043639079
0.014233038 -0.16640502 2.3875823 -0.05947493 0.28282988 -0.95732433 0.040569887
0.019456714 -0.15998194 2.3903625 -0.037155133 0.32413968 -0.9452793 0.040716
0.020588763 -0.1648581 2.3886564 -0.037155136 0.32413974 -0.9452793 0.04071594
0.021536294 -0.15492554 2.3930576 -0.052017391 0.33340985 -0.94134587 0.03881624
0.022003328 -0.15085281 2.3948128 -0.052017391 0.33340979 -0.94134593 0.038816184
0.023555912 -0.050107148 2.3887949 0.015755162 -0.71385586 -0.70011544 0.082783848
0.033410478 0.0067667183 2.2939851 0.68797559 0.33810943 -0.64216161 0.018461481
0.034970604 -0.14935803 2.3929782 0.046606708 0.43954706 -0.89700961 0.032724399
0.036156569 0.00057512708 2.294507 0.68797553 0.33810943 -0.64216167 0.018461432
0.036156569 0.00057512708 2.294507 0.68797553 0.33810943 -0.64216167 0.018461432
0.040007267 0.00050028728 2.2971904 0.68797565 0.3381094 -0.64216161 0.018461432
0.040406413 0.0051738615 2.2985961 0.68797559 0.33810946 -0.64216161 0.018461457
0.044752605 0.0065011159 2.3027661 0.69175124 0.33649319 -0.63894635 0.018934842
0.048835892 -0.13771309 2.4018271 -0.11896096 0.65069002 -0.74996716 0.040587995
0.046700012 -0.012562351 2.2946966 0.69199777 0.3257255 -0.64423746 0.018540459
0.049805373 -0.13126841 2.4046106 -0.19554219 0.52861339 -0.82603329 0.029247334
0.050021749 -0.12192998 2.4097004 -0.22390595 0.65599078 -0.72079277 0.024935458
0.049511354 0.034455393 2.3224404 0.68682414 0.20319736 -0.697842 0.016801238
0.055029068 -0.14363918 2.4004126 -0.089046799 0.59356844 -0.799842 0.042807493
0.056811009 -0.085794553 2.4286237 -0.13951229 0.63104284 -0.76309985 0.17652287
0.05809816 -0.12088425 2.4107435 -0.16157398 0.61934412 -0.76831424 0.031050371
0.057220362 0.06915307 2.3485343 0.65453613 0.20612736 -0.72738838 0.048891198
0.059520792 -0.068201892 2.4398496 -0.18103704 0.58642203 -0.78951555 0.16165437
0.057163171 0.045641467 2.3348954 0.65351111 0.20954226 -0.72733432 0.030499304
0.057301257 0.038094372 2.3297858 0.67616326 0.25518894 -0.69114536 0.02876018
0.057509091 -0.0044932356 2.3092942 0.65680808 0.29131225 -0.69551444 0.013423517
0.058740821 0.028627684 2.3269122 0.66662258 0.22243634 -0.7114327 0.015460125
0.060738962 0.014774946 2.3233798 0.64302295 0.31718913 -0.69707423 0.0050556334
0.060738962 0.014774946 2.3233798 0.64302295 0.31718913 -0.69707423 0.0050556334
0.061962124 0.08171349 2.3607695 0.7353549 0.32538933 -0.59445345 0.059917398
0.061039992 -0.0084131025 2.3106153 0.65680802 0.29131225 -0.69551444 0.013423517
0.061039992 -0.0084131025 2.3106153 0.65680802 0.29131225 -0.69551444 0.013423517
0.061220177 -0.014233707 2.3097584 0.69728273 0.20263746 -0.68755728 0.018983271
0.06402202 -0.12671988 2.4087973 -0.082666002 0.50393254 -0.85977811 0.0349061
0.062825404 0.065381259 2.3512483 0.61866558 0.27472797 -0.73605537 0.045023493
0.06703645 0.024646053 2.3340845 0.67036384 0.22534159 -0.70698899 0.02095791
0.070930034 -0.11269658 2.4144514 -0.039129596 0.4261224 -0.90381885 0.043406513
0.07137312 -0.14186966 2.3987103 -0.022730682 0.56861126 -0.82229227 0.052532006
0.068791553 -0.017644972 2.3111775 0.70418042 0.21309111 -0.67729026 0.012661062
0.071967937 0.086272746 2.3733644 0.53438693 0.8377192 -0.11250396 0.18479519
0.076264091 -0.1284792 2.4051292 -0.01895012 0.48873478 -0.87222654 0.034864403
0.079693004 -0.11761786 2.4120772 -0.019895433 0.53162456 -0.84674644 0.023506807
0.078953139 0.0071850885 2.3377914 0.66875082 0.32803264 -0.66720831 0.0046910625
0.080856666 0.095184155 2.3884571 0.6758458 -0.6603961 -0.32727587 0.20703648
0.078904659 -0.019195601 2.3251076 0.72112906 0.17181173 -0.67115843 0.014196181
0.084357403 -0.13242818 2.4038661 0.040384278 0.48972461 -0.87094134 0.032789018
0.085077494 -0.10689934 2.4161675 0.12697211 0.57564908 -0.80777854 0.062547907
0.082276158 -0.013753935 2.3294809 0.72837973 0.17687446 -0.66195053 0.01452875
0.084611721 0.027393719 2.3550444 0.76697677 0.22019158 -0.60271233 0.032923277
0.084519342 0.0106154 2.3429651 0.65627813 0.33467504 -0.67623341 0.008982894
0.085141882 0.031742074 2.3587401 0.75477302 0.16275869 -0.63547421 0.035368916
0.087215945 -0.11991706 2.4110606 0.082548872 0.61063796 -0.78759569 0.040100969
0.084885642 0.0048318459 2.3426812 0.6580922 0.32899967 -0.67725468 0.0090216706
0.088278167 -0.12924835 2.4048138 0.040384293 0.48972455 -0.8709414 0.032788932
0.086612344 -0.0041894885 2.3390145 0.71459371 0.25530666 -0.65128666 0.01168398
0.090775192 0.079055391 2.3845561 0.63476866 0.33620384 -0.69572675 0.16058427
0.093529887 -0.12228673 2.4090981 0.14627774 0.51411343 -0.84515697 0.025335977
0.09114749 0.0016385727 2.3430493 0.73819149 0.22162776 -0.63714558 0.01395302
0.092723727 0.0066231168 2.3513424 0.70231587 0.29310045 -0.64872533 0.012538404
0.094271936 0.038301345 2.3690507 0.72397125 0.074930586 -0.68574852 0.045371868
0.093486235 -0.019440325 2.3372674 0.67923719 0.22542267 -0.69844228 0.019842638
0.094892353 0.024021376 2.3653674 0.75794327 0.19857724 -0.62136066 0.043744441
0.097575158 -0.094155014 2.4256606 0.4330447 0.84604478 -0.3109349 0.096847974
0.095027931 -0.014516193 2.3419673 0.64332658 0.21223629 -0.73558599 0.01743222
0.098512277 0.069314845 2.3912301 0.59439325 0.34794697 -0.72500306 0.16995177
0.098673098 0.069262691 2.3908279 0.59439254 0.34794661 -0.72500384 0.16995171
0.10413278 0.018031886 2.3693793 0.69419801 0.34407437 -0.63221979 0.034526005
0.10732627 -0.035316456 2.3434932 0.6673544 0.21461862 -0.71314585 0.012682052
0.11180971 0.035032857 2.3886304 0.74135846 0.019809673 -0.67081678 0.11377402
0.10918009 -0.27503872 2.2552338 -0.12977183 0.34696546 -0.92885649 0.077940241
0.11409944 -0.02912952 2.3537571 0.74909723 0.072985098 -0.6584273 0.02659948
0.12014995 0.040124826 2.3995657 0.57596278 0.12152949 -0.80839187 0.1116884
0.12297329 0.008622067 2.3838856 0.70154619 0.2816669 -0.65459651 0.11120839
0.12297329 0.008622067 2.3838856 0.70154619 0.2816669 -0.65459651 0.11120839
0.12397842 0.0039084018 2.3824856 0.67512035 0.35137948 -0.64864856 0.094846345
0.1204506 -0.28186792 2.2439449 -0.20163468 0.32809457 -0.92287457 0.083409213
0.13264251 0.0075276191 2.3945136 0.63342726 0.39182931 -0.66726291 0.077397577
0.13617289 -0.024248306 2.3794458 0.71451437 0.15204075 -0.68290025 0.10309838
0.14346471 -0.0084051229 2.3896883 0.63442218 0.32076508 -0.703291 0.013785541
0.14399967 -0.13474534 2.3541291 -0.32192147 0.26554659 -0.90876371 0.15466581
0.14170253 -0.33135533 2.252645 -0.2344633 0.20034175 -0.95125717 0.10115265
0.14498326 -0.21150237 2.3025038 -0.55409294 0.63958877 -0.5328294 0.034735639
0.152852 0.0096061751 2.4184277 0.63486326 0.19589227 -0.74737871 0.014230683
0.15492348 0.061976269 2.4395161 0.7105118 0.10745197 -0.69543296 0.04926832
0.15437897 -0.11603626 2.3698161 -0.01398409 0.40723863 -0.91321474 0.20598738
0.16003452 -0.0021892395 2.4187939 0.68250382 0.18039255 -0.70827043 0.019602371
0.16104421 -0.0075343573 2.4108062 0.67625678 0.18514112 -0.7130214 0.021889757
0.15646525 -0.19034071 2.3137128 -0.6242367 0.5169636 -0.58572781 0.076709837
0.15646525 -0.19034071 2.3137128 -0.6242367 0.5169636 -0.58572781 0.076709837
0.16435908 -0.066849291 2.3770351 0.81782627 0.54971337 -0.17022179 0.12402362
0.17262682 0.0095644267 2.4311934 0.62050807 0.27951762 -0.73269343 0.017251616
0.17066592 -0.1094359 2.3769164 0.011918941 0.65029234 -0.75959057 0.095058389
0.17425974 -0.1247315 2.3695188 0.012244616 0.63889539 -0.76919621 0.082691178
0.17757279 -0.024460584 2.4132507 0.71456784 0.055730302 -0.69734281 0.025030397
0.17757279 -0.024460584 2.4132507 0.71456784 0.055730302 -0.69734281 0.025030397
0.17447697 -0.12124873 2.3702028 0.012244601 0.63889539 -0.76919615 0.082691178
0.18382819 0.037345942 2.4551959 0.60253936 0.26571724 -0.75255609 0.023100063
0.17036173 -0.3212381 2.2602639 -0.30727425 0.13379563 -0.94216835 0.10591373
0.17036173 -0.3212381 2.2602639 -0.30727425 0.13379563 -0.94216835 0.10591373
0.17855075 -0.13273358 2.3613617 0.13155259 0.64216387 -0.75519502 0.071974024
0.17818867 -0.17051394 2.3361685 -0.61878693 0.5447517 -0.56599319 0.084482878
0.18373351 -0.12370811 2.3699851 0.086457655 0.6204477 -0.77946752 0.095687903
0.18373351 -0.12370811 2.3699851 0.086457655 0.6204477 -0.77946752 0.095687903
0.18215829 -0.17181754 2.3362286 -0.58017492 0.60920066 -0.54062146 0.094264358
0.19113769 0.020206543 2.4481344 0.56093884 0.2777968 -0.77985686 0.023103006
0.20108712 0.039679602 2.4700105 0.52932096 0.25710905 -0.80852604 0.02296604
0.1925095 -0.1405277 2.3592372 0.22050153 0.49279988 -0.84174073 0.068368882
0.1925095 -0.1405277 2.3592372 0.22050153 0.49279988 -0.84174073 0.068368882
0.19568351 -0.10739987 2.3835294 -0.13484296 0.26072156 -0.95595062 0.15842757
0.19568351 -0.10739987 2.3835294 -0.13484296 0.26072156 -0.95595062 0.15842757
0.19894573 -0.12189837 2.3752508 0.16333061 0.50983858 -0.84462285 0.12415687
0.19894573 -0.12189837 2.3752508 0.16333061 0.50983858 -0.84462285 0.12415687
0.20527381 0.010992022 2.4496019 0.54440045 0.30434468 -0.78166646 0.021643596
0.20527381 0.010992022 2.4496019 0.54440045 0.30434468 -0.78166646 0.021643596
0.19854461 -0.13264742 2.3653095 0.21163727 0.5028851 -0.83804309 0.12155846
0.20136607 -0.11328506 2.3816984 0.12251253 0.56214482 -0.81791437 0.11770369
0.19548433 -0.33783472 2.2655337 -0.30280924 -0.06129415 -0.95107812 0.10469069
0.20732971 -0.11508364 2.3817172 0.16333058 0.5098387 -0.84462279 0.12415692
0.20794007 -0.12939987 2.371793 0.21163723 0.50288522 -0.83804303 0.12155848
0.20794007 -0.12939987 2.371793 0.21163723 0.50288522 -0.83804303 0.12155848
0.21234728 -0.12435122 2.3752539 0.21163736 0.50288522 -0.83804303 0.12155853
0.22230124 0.0047729975 2.4543085 0.54306114 0.20570834 -0.81410611 0.042411961
0.22723599 0.014020082 2.4612703 0.54098332 0.18689547 -0.82000434 0.04301475
0.23140262 0.037874721 2.4792914 0.54185599 0.12421645 -0.83124149 0.042251512
0.23996943 0.022650031 2.4802747 0.54751116 -0.010693878 -0.83673 0.046712801
0.22133699 -0.31761497 2.2608221 -0.10464346 -0.059273221 -0.99274188 0.063864067
0.22918315 -0.34216833 2.273195 -0.10464351 -0.05927315 -0.99274188 0.063864082
0.22868912 -0.32474804 2.2664566 -0.10464346 -0.059273232 -0.99274188 0.063864097
0.25098383 0.025659278 2.4810905 0.54751146 -0.010693652 -0.83672988 0.046712726
0.23158923 -0.33691445 2.273777 -0.10464349 -0.059273157 -0.99274188 0.063864052
0.23746623 -0.31768146 2.2687345 -0.056682009 -0.044506684 -0.99739981 0.066843301
0.26561144 0.015039331 2.4819536 0.57405543 -0.039757378 -0.81785059 0.040105492
0.27782637 -0.33518422 2.2841189 0.64954138 -0.63772166 -0.41401342 0.057947554
-0.15162659 -0.22351499 2.3678966 -0.24688233 0.6976009 -0.67260844 0.091424517
-0.17232418 -0.22859052 2.3767691 -0.29996642 0.63687021 -0.71022284 0.079192214
-0.16215961 -0.22509076 2.3765404 -0.29996637 0.63687015 -0.7102229 0.079192169
-0.059116624 -0.1489073 2.384393 -0.16687657 0.47914493 -0.86172634 0.052594751
-0.034155078 -0.12939434 2.3891065 0.15624218 0.77427322 -0.61326134 0.13468777
0.06860432 0.069416799 2.3394086 0.65453631 0.20612733 -0.72738826 0.048891149
0.075461783 0.070893534 2.3473849 0.69960541 0.22120062 -0.67942816 0.057842646
0.07410071 0.057116557 2.3438439 0.67017215 0.24492395 -0.70062947 0.041227262
-0.011878963 -0.16888891 2.3759742 0.014537951 0.33963618 -0.94044447 0.027667586
0.090501301 0.050372519 2.3595588 0.74289185 0.14458327 -0.653611 0.044594817
0.007880454 -0.14697558 2.3838775 0.085073993 0.20293641 -0.97548926 0.081683829
0.026858937 -0.14983344 2.3835118 -0.024810685 0.36930713 -0.92897612 0.034961697
0.095012881 -0.034090478 2.3353033 0.68746936 0.2316809 -0.68826586 0.019057373
0.15035753 -0.010469682 2.4005349 0.64634061 0.29320601 -0.70446724 0.011984201
0.17172872 -0.0077181454 2.4262307 0.67234868 0.08172217 -0.73570967 0.024703106
0.20910302 0.071811587 2.4703112 0.56801701 0.24196665 -0.78664398 0.022234077
0.21744056 0.0052943518 2.46822 0.57557207 0.060954589 -0.81547606 0.048315626
-0.14324254 -0.13661747 2.4425142 -0.09538319 0.58749169 -0.80358911 0.1260374
-0.12983181 -0.15859316 2.4176812 -0.016501773 0.56369281 -0.82581973 0.10970303
-0.11193492 -0.1971371 2.3796284 -0.30602553 0.59649658 -0.74198401 0.072403625
-0.1087124 -0.17832029 2.3958542 -0.26253203 0.59790283 -0.7573567 0.1098889
-0.099282421 -0.16539156 2.4049284 -0.17026186 0.72737098 -0.66478741 0.079378441
-0.083883852 -0.16153625 2.4048703 -0.15688288 0.66517818 -0.7300176 0.10059065
-0.069268778 -0.14588757 2.4138293 -0.32947516 0.71157128 -0.62057436 0.050428715
-0.049608976 -0.17167553 2.3890858 0.13833949 0.28897932 -0.94728726 0.02315888
-0.032581955 -0.16981876 2.3856018 -0.064983979 0.48297185 -0.87322122 0.032604769
-0.028724261 -0.10043549 2.4432034 -0.13559102 0.70154488 -0.69960684 0.11368365
0.0092025073 -0.11420538 2.4230416 -0.081701159 0.69526297 -0.71409684 0.019672472
0.030182587 -0.13803777 2.3986609 -0.025618536 0.60371363 -0.79678953 0.036502421
0.044445626 -0.14206339 2.3922713 -0.10816757 0.60377723 -0.78978032 0.037737302
0.068661347 -0.14188413 2.3877361 -0.098631211 0.53641862 -0.8381688 0.049864486
0.079861715 -0.13280049 2.3922827 -0.02507744 0.58450353 -0.81100351 0.054927241
0.16794544 -0.10220721 2.3852592 -0.072674341 0.4142907 -0.90723848 0.11952285
0.17999826 -0.14128353 2.3532374 0.15391386 0.62982905 -0.76133162 0.13228437
-0.046697345 -0.097742684 2.448348 -0.22175728 0.74129146 -0.63349098 0.073323771
0.021767087 0.030649297 2.4292064 0.83845145 -0.54496801 -0.0029966985 0.13581404
-0.17557006 -0.22655281 2.3657289 -0.29996645 0.63687003 -0.71022302 0.079192154
-0.1657777 -0.16675195 2.4041922 -0.29262814 0.51259971 -0.80722386 0.1142146
-0.14364029 -0.18519758 2.3928771 -0.17767604 0.62465298 -0.76042086 0.056481313
-0.13915893 -0.15864174 2.4094069 -0.3675808 0.07865905 -0.92665917 0.098268054
-0.12174353 -0.18742155 2.3869996 -0.25979361 0.68698686 -0.67864305 0.054347217
-0.091768451 -0.17442261 2.3918409 0.17828783 0.78275335 -0.59624702 0.065302968
-0.056022324 -0.13113548 2.4182897 -0.22304067 0.83158708 -0.508641 0.082032479
-0.044475056 -0.14184147 2.4092336 0.07750304 0.64620006 -0.75922245 0.1114685
-0.023936218 -0.14933559 2.4022744 0.11826493 0.64294636 -0.75672537 0.073967434
-0.024875395 -0.13625929 2.4113584 0.18196234 0.64336801 -0.74361771 0.061357543
-0.028015176 -0.11250955 2.4261811 -0.002367676 0.66219789 -0.74932522 0.093461521
-0.012238418 -0.11149678 2.42624 0.038984019 0.65296221 -0.75638652 0.080334328
-0.003470365 -0.12729041 2.4167948 0.00073979649 0.68094081 -0.73233801 0.026093083
0.043893989 -0.16068169 2.3908491 -0.10953674 0.47383469 -0.87377483 0.039873555
0.017817046 -0.10560086 2.4282453 -0.085414708 0.6501283 -0.75500834 0.079996571
-0.014950033 -0.090498455 2.4685233 -0.026105512 0.72226673 -0.69112164 0.1167421
0.041288186 -0.12865824 2.4106407 -0.14843954 0.65325588 -0.74244362 0.016118081
-0.0019145376 -0.069186822 2.4797907 0.11523975 0.591272 -0.7981962 0.1381575
0.066850521 -0.15257801 2.3942788 -0.099199012 0.60011345 -0.79374015 0.041977592
0.010739645 -0.07982564 2.4703915 0.051120058 0.7858727 -0.61627179 0.12688059
0.049599793 -0.10535651 2.4255137 -0.2630803 0.72130638 -0.64070737 0.088503487
0.08506231 -0.1434845 2.3990641 0.0028705266 0.55569857 -0.83137888 0.048089527
0.10110103 -0.1353818 2.403688 -0.045682177 0.63391238 -0.77205461 0.050814271
0.10349969 -0.11447085 2.4166677 0.25309566 0.72019964 -0.64595288 0.11757205
0.113758 -0.13199627 2.4052653 -0.10087065 0.71584523 -0.69093472 0.088017657
0.12263068 -0.11666149 2.4186077 -0.089020252 0.90765572 -0.41016644 0.15675369
-0.13994853 -0.21953365 2.3710947 -0.35046178 0.87932199 -0.32244274 0.045977253
-0.11676037 -0.20818026 2.3763011 -0.15169092 0.69320422 -0.70459759 0.043597031
-0.086668551 -0.20079648 2.3795199 -0.043769278 0.24937433 -0.96741754 0.032828089
-0.066118196 -0.14224784 2.3923786 -0.031915177 0.33934647 -0.94011992 0.15988649
0.059067857 -0.086812459 2.4105098 -0.2838468 0.46741483 -0.83723021 0.069220789
-0.040198203 -0.18581903 2.3891554 0.084548995 0.39388564 -0.91526252 0.018325623
0.074547507 -0.11198515 2.4041176 0.027057506 0.47115767 -0.88163394 0.054885365
-0.19356985 -0.23966603 2.364763 -0.29996648 0.63687003 -0.71022302 0.079192147
-0.16112123 -0.2282386 2.3653908 -0.24688241 0.69760144 -0.6726079 0.09142442
-0.17662427 -0.21639284 2.3878183 -0.36930162 0.66974944 -0.64424545 0.059407298
-0.18507168 -0.18219659 2.4247358 -0.24316695 0.54266578 -0.80397999 0.093176827
-0.18253016 -0.17503066 2.4321933 -0.22426334 0.52235013 -0.82271278 0.10171466
-0.15219088 -0.16814582 2.4244208 -0.22625902 0.46182889 -0.85762519 0.11645161
-0.12079736 -0.18357645 2.400419 -0.37561482 0.51656884 -0.76946098 0.069356926
-0.0833259 -0.15282582 2.4170973 -0.26740605 0.79728645 -0.54113609 0.05858209
-0.09050978 -0.13322385 2.4459372 -0.21412376 0.83070737 -0.51388353 0.038228262
-0.024114903 -0.13390681 2.4228001 0.063087441 0.82654589 -0.55932266 0.071593858
-0.01133337 -0.14186236 2.4114072 -0.056697343 0.68635619 -0.72505224 0.095869936
-0.041615173 -0.12198462 2.4413285 -0.14267142 0.64139211 -0.75383085 0.095401838
-0.043839935 -0.11309132 2.4471188 -0.22685517 0.73573923 -0.63814145 0.088502705
0.054201026 -0.15812708 2.3888228 -0.090895131 0.44343659 -0.89168501 0.043026008
0.023008429 -0.13158877 2.4174125 -0.10756411 0.70731944 -0.69866252 0.015801948
0.0072510615 -0.1133919 2.4380224 0.0054654786 0.760858 -0.64889538 0.03800685
0.01937153 -0.11896928 2.4299898 -0.11949479 0.70986384 -0.69412845 0.01742021
0.032258276 -0.10521308 2.4398251 -0.29238603 0.79073012 -0.53782552 0.13812029
0.041125819 -0.11197361 2.4332323 -0.20730668 0.83961093 -0.50207305 0.1423889
0.090400077 -0.10073828 2.4425337 0.56342107 0.82613945 0.0070909779 0.13746426
0.25574812 -0.15925395 2.3603201 0.42533374 0.79560173 -0.43140361 0.07472124
-0.17040496 -0.19572335 2.3713248 -0.32113135 0.57201546 -0.75476688 0.065403618
-0.17320211 -0.14256865 2.3970997 -0.22852978 0.54412901 -0.80727798 0.12440433
-0.16900904 -0.12254798 2.4061112 -0.39390251 0.25735593 -0.88238806 0.13576259
-0.13978533 -0.1427553 2.4043608 -0.016501868 0.56369257 -0.82581985 0.10970298
-0.11225397 -0.16406439 2.3926492 -0.29606199 0.59941632 -0.74367148 0.086045399
0.007011848 -0.17791855 2.3865654 0.058066618 0.27561933 -0.95951152 0.034876674
-0.068404339 -0.037354503 2.4473124 0.7749688 -0.52924824 -0.34542689 0.13597107
-0.032846373 -0.082481995 2.4305449 -0.13559122 0.70154518 -0.69960654 0.11368363
0.028624445 -0.17258282 2.3895373 -0.021881996 0.24067105 -0.97035998 0.027772726
0.06785956 -0.14646961 2.3781261 -0.023593482 0.61954135 -0.78460938 0.040390547
0.10047568 0.11684017 2.4440446 0.12907732 -0.91309261 -0.38678271 0.19210887
0.10323226 0.10554623 2.4496794 0.1097656 -0.64704514 -0.75450915 0.19451542
0.1352789 0.075382769 2.4291241 0.5201515 0.60897714 -0.59882331 0.091883637
0.20129149 0.019960888 2.4580686 0.56602579 0.24812667 -0.78616035 0.023444146
0.21188331 -0.0049583195 2.4516222 0.56331307 0.23033273 -0.79348922 0.03395699
-0.0039032758 0.063471273 2.274467 0.66200519 0.38443047 -0.64339906 0.013687722
0.073298663 0.041492779 2.3374488 0.65282321 0.17262799 -0.73757809 0.024145339
0.079478942 0.048127204 2.3435907 0.6700843 0.18220842 -0.71957433 0.036210738
0.10074624 0.077299327 2.3707316 0.65758044 0.41424546 -0.62927634 0.0589226
0.084343858 0.021060089 2.3438365 0.68454123 0.23165128 -0.69118816 0.015897151
0.097419158 0.028566454 2.3566475 0.79859614 0.15766855 -0.58084834 0.036473602
0.1124488 0.069799684 2.3800006 0.41063437 0.17692108 -0.89447099 0.10839342
0.07665541 -0.037323691 2.3303559 0.70957798 0.17727672 -0.68196195 0.01525256
0.12812383 0.097415037 2.4069617 0.64865786 0.61484939 -0.44855687 0.20846584
0.0826075 -0.027298899 2.3363109 0.69244403 0.22789828 -0.68453169 0.017877979
0.10328709 0.01130949 2.3592479 0.70400047 0.29249203 -0.64717209 0.019070948
0.097899228 -0.0055553266 2.3528295 0.68396729 0.28266054 -0.67252642 0.012840807
0.12457303 0.044473007 2.3834713 0.37729043 0.11408336 -0.91904134 0.10458594
0.12205011 0.030550364 2.3813977 0.47783893 0.097531356 -0.87301636 0.12081651
0.10304716 -0.023452325 2.3553419 0.65981197 0.22426079 -0.71718562 0.012367604
0.11778705 -0.0017781345 2.3694053 0.65875965 0.24381573 -0.7117511 0.018281193
0.14916103 0.082952276 2.4190633 0.58126855 0.69560879 -0.42220291 0.16802946
0.13262171 0.023350183 2.3896348 0.40963137 0.058021449 -0.91040409 0.1780386
0.12411531 -0.0067894068 2.37747 0.72031981 0.16909252 -0.67271614 0.11640051
0.14910837 0.022931766 2.404634 0.69003421 0.10918753 -0.7154935 0.066475183
0.17446212 0.049756601 2.4297905 0.6529578 0.23278399 -0.72073418 0.020721916
0.15718889 -0.023147998 2.4045031 0.67196441 0.024571175 -0.74017572 0.035032623
0.17968865 0.0020086293 2.4278052 0.62050802 0.27951762 -0.73269343 0.017251553
0.1739279 -0.015679637 2.4198833 0.68432426 0.014526407 -0.72903305 0.027238907
0.12682933 -0.1154029 2.3809805 -0.38481125 0.786502 -0.48304757 0.10127237
0.12264458 -0.1393631 2.3761053 -0.27361959 0.72772211 -0.62892991 0.060882673
0.15875514 -0.094515048 2.4046624 -0.44702661 -0.62173927 -0.64312327 0.26484928
0.21712843 0.032909092 2.4672425 0.50771922 0.25001672 -0.82444698 0.025661752
0.17743653 -0.068158478 2.4205105 0.8609339 0.2181932 -0.45954821 0.06340076
0.1592274 -0.15068658 2.4215343 -0.1655063 -0.74462235 -0.64664137 0.17498966
0.17972253 -0.12058043 2.4347639 -0.41333261 0.91012055 -0.028927721 0.14898437
0.20622747 -0.071699165 2.4584 0.70586997 0.008060921 -0.70829564 0.0063206777
0.21608776 -0.064421467 2.4658465 0.70321774 -0.019293897 -0.71071273 0.0090516172
0.20615998 -0.087362707 2.458539 0.72958928 0.16153356 -0.66453475 0.037293784
0.21564563 -0.082668141 2.4635787 0.70586991 0.0080609201 -0.7082957 0.0063206772
0.20526487 -0.10396565 2.4568751 0.79611087 0.069488823 -0.60114789 0.072564773
0.092875682 -0.29129967 2.376478 -0.075496785 0.66797173 -0.74034715 0.077047795
0.24717201 -0.036592029 2.4953194 0.67000085 -0.085068382 -0.73747009 0.012765877
0.075448036 -0.051577743 2.4306843 -0.54096007 0.086958498 -0.8365407 0.23372468
0.018922089 -0.011597903 2.2514827 0.72875446 0.33786887 -0.59561867 0.0089099221
0.03102841 -0.0096547529 2.2670753 0.72034872 0.3315165 -0.6092574 0.019810131
0.046831455 0.011440977 2.291604 0.70168298 0.3177487 -0.63771212 0.01688436
-0.030091187 0.022387503 2.2164471 0.69033319 0.43094915 -0.58113927 0.010919493
0.02753542 -0.018391155 2.2715335 0.72034872 0.33151627 -0.60925758 0.01980998
0.069744661 0.10919316 2.3448939 0.74133325 0.082618646 -0.66603243 0.07803674
0.066323563 0.05093617 2.3287897 0.64485407 0.26887983 -0.71544862 0.036834929
0.045042384 -0.028341182 2.2885478 0.75206804 0.26427853 -0.60378021 0.021006713
0.065223314 0.0034999237 2.3166316 0.6921981 0.32847807 -0.64262259 0.0099346256
0.077566214 0.0002832711 2.3294559 0.6687268 0.32991692 -0.66630268 0.0033932009
0.10483821 0.055016764 2.3700283 0.71111685 0.23247065 -0.66352868 0.067990661
0.12655841 0.053429723 2.3937612 0.48644233 0.30868399 -0.81736654 0.15435787
0.15131088 0.061650191 2.4206221 0.76811081 0.15154184 -0.62212604 0.090946846
0.13243295 -0.0081100911 2.3867989 0.58099985 0.17737821 -0.79434007 0.17406242
0.15928125 0.059483834 2.4296882 0.78740627 0.19937526 -0.58330184 0.074941963
0.17063907 0.05869906 2.4408345 0.62963146 0.22820839 -0.74262047 0.020926977
0.19362608 0.02938311 2.4615095 0.55730379 0.27768794 -0.78249723 0.022923054
0.16709682 -0.050780721 2.4226809 0.76086271 0.11259956 -0.63906914 0.047769532
0.17863125 -0.049098402 2.4369726 0.72252429 0.0049968879 -0.69132757 0.012188042
0.19037893 -0.051362965 2.4495134 0.71830082 -0.011014295 -0.69564545 0.010248783
0.17471284 -0.15765479 2.4132776 -0.72296548 0.62309533 -0.29845122 0.18624793
0.19934233 -0.098461449 2.4426978 0.75599831 0.51878494 -0.39916 0.066937402
0.21628812 -0.092824973 2.4629931 0.72869051 0.14313832 -0.66971749 0.036641698
0.23981003 -0.02628169 2.4944327 0.63890421 -0.085545622 -0.76451516 0.017614024
0.2164647 -0.10404451 2.4614141 0.74384338 0.33024773 -0.58106244 0.073353559
0.22571342 -0.093461156 2.4716489 0.76088667 0.069675535 -0.64513314 0.039864693
0.24451177 -0.055913772 2.4949038 0.70068777 -0.081187122 -0.70883375 0.012486001
0.249504 -0.047854502 2.5014546 0.68272144 -0.092732377 -0.72477031 0.011562314
0.17263961 -0.49922702 2.5811918 -0.1548562 -0.27105841 -0.95002466 0.02944278
0.18116555 -0.10367232 2.3661668 -0.3499096 -0.75042146 -0.56074142 0.24358794
0.19604744 -0.10362031 2.3412523 -0.82447231 -0.56523055 0.027563669 0.17708158
0.078121714 0.089361832 2.3559871 0.70481765 0.37873477 -0.59982669 0.062519699
0.12526603 0.1086237 2.294178 0.47832105 -0.34784254 -0.80635881 0.18589537
0.15381032 -0.11026447 2.388968 -0.17392442 0.59343064 -0.78586918 0.1594294
0.20543459 -0.10787313 2.3522768 0.97486413 -0.092807554 -0.20255034 0.21944183
0.2162606 -0.095589429 2.185241 -0.76749641 -0.49582458 -0.40633389 0.01368267
0.17033565 -0.090450451 2.3831863 0.81126887 0.58355981 -0.036065843 0.18521535
0.15339181 0.043956172 2.3736935 0.52194655 -0.044914506 -0.8517949 0.1000863
0.13699663 -0.078050658 2.3660302 -0.81824356 -0.53699428 -0.20521857 0.11701879
0.17096968 -0.082794093 2.3449478 -0.73639268 -0.57679266 -0.35360444 0.09506508
0.20998129 -0.13373587 2.3066597 -0.88753122 0.075662211 -0.45449266 0.036735024
0.17950387 -0.31066445 2.5483675 -0.31733689 -0.43359792 -0.84338021 0.011579736
0.2229932 -0.14987335 2.2891736 -0.86500859 0.010524725 -0.50164676 0.032076057
0.22115707 -0.26902264 2.4748988 -0.51747102 -0.51624227 -0.68243515 0.017261349
0.18718521 -0.35483107 2.559458 -0.19583146 -0.29305038 -0.93582666 0.015576841
0.24771276 -0.2930021 2.4773128 -0.55898398 -0.43141654 -0.70810783 0.0093962401
0.19921601 -0.38987914 2.5750418 -0.21083778 -0.27465314 -0.93814343 0.019661177
0.1954992 -0.43419206 2.5803955 -0.24250101 -0.28268448 -0.92805326 0.023454862
0.15264602 -0.48704618 2.6002607 -0.30546471 -0.29783291 -0.90442622 0.025139118
0.20047455 -0.45103964 2.5876756 -0.22667791 -0.25910729 -0.93887198 0.027349327
0.13593481 -0.51098651 2.6052573 -0.33704254 -0.30054063 -0.89223182 0.028870076
0.22101554 -0.44879979 2.5903809 -0.22912022 -0.25099596 -0.94048125 0.023753757
0.12953082 -0.54613435 2.6187856 -0.40632117 -0.37370685 -0.83381432 0.054695316
0.28520948 -0.21925978 2.237164 -0.82946688 -0.33484092 -0.4470641 0.065921374
0.15619141 -0.52400547 2.6094851 -0.29256383 -0.33915588 -0.8940804 0.031997513
0.17810334 -0.51712972 2.6048853 -0.22380918 -0.38745904 -0.89430696 0.021162793
0.14188384 -0.55011111 2.6156847 -0.38506255 -0.39406887 -0.83452779 0.060210124
0.16518289 -0.53568989 2.6094928 -0.30611309 -0.33112219 -0.89255416 0.033917874
0.13275549 -0.56683856 2.6222026 -0.47624671 -0.36191115 -0.80137974 0.059222221
0.27742845 -0.24495822 2.2278702 -0.77700758 -0.066167079 -0.62600416 0.024997462
0.18914318 -0.52928489 2.60657 -0.20189629 -0.36526513 -0.908746 0.020202503
0.28802928 -0.24110889 2.2232108 -0.79479742 -0.076944821 -0.60197717 0.02619843
0.16756408 -0.56223458 2.6205485 -0.21647619 -0.34767249 -0.9122839 0.054010928
0.14223635 -0.58425009 2.6277099 -0.5367654 -0.39672554 -0.74464208 0.057293624
0.18641575 -0.55231559 2.6141067 -0.18008482 -0.25705341 -0.94946986 0.019542433
0.15780136 -0.59490335 2.6283524 -0.49371499 -0.39774185 -0.77333486 0.060807154
0.21448208 -0.55625492 2.6162028 -0.22753289 -0.27807227 -0.93322271 0.015351573
0.16753356 -0.60130709 2.6300054 -0.38612384 -0.39376613 -0.83418018 0.064473689
0.20472094 -0.58080935 2.6238286 -0.20728052 -0.3067551 -0.92894351 0.023639672
0.16250804 -0.62836576 2.6378448 -0.38127616 -0.42815802 -0.81933469 0.025582124
0.17932923 -0.65566647 2.6465459 -0.34897396 -0.33821112 -0.87397385 0.035581626
0.22256169 -0.64060318 2.6419597 -0.28213665 -0.35260838 -0.89222544 0.020599037
0.18720447 -0.68128616 2.6515651 -0.37321699 -0.18512757 -0.90908575 0.024189655
0.22419755 -0.65559798 2.6442726 -0.23235072 -0.27264124 -0.93363804 0.015956935
0.21512677 -0.67875862 2.651372 -0.22428207 -0.27150461 -0.93593955 0.014240326
0.18273492 -0.70695817 2.6577423 -0.48409989 -0.38048685 -0.78795749 0.038271997
0.20929149 -0.69621778 2.6559343 -0.2279613 -0.27470183 -0.93411595 0.017892938
0.20039956 -0.72616261 2.663872 -0.35283116 -0.35863468 -0.86422879 0.029400513
0.21441606 -0.72289985 2.6628926 -0.31969771 -0.3666057 -0.87372398 0.029815339
0.23008345 -0.71930379 2.6649485 -0.2953186 -0.33903363 -0.8932206 0.029740931
0.23127049 -0.73798305 2.6667001 -0.29783529 -0.3696357 -0.88014978 0.024986098
0.22277083 -0.76194292 2.6751723 -0.32899594 -0.38264802 -0.86333197 0.025309645
0.2298518 -0.77967042 2.6779766 -0.32654759 -0.35609618 -0.87553537 0.024048813
0.14579035 -0.56570125 2.655726 -0.49259585 -0.40478224 -0.77039003 0.052569121
0.16229698 -0.66376376 2.6877179 -0.53714961 -0.3876082 -0.74915296 0.033649083
0.17252702 -0.72323602 2.7058394 -0.48011601 -0.38353258 -0.78891784 0.033017904
0.0080558332 -0.01013112 2.4649136 0.48706505 -0.39088401 -0.78101051 0.16577077
0.59090263 -0.087998055 2.0304589 -0.49488392 -0.42829013 -0.75608033 0.044721849
0.061235949 -0.068740956 2.5111341 -0.27232391 -0.047779657 -0.96101862 0.13988911
0.07123968 -0.031641282 2.4697945 -0.50986433 -0.044655051 -0.85909498 0.13767447
0.097493447 0.035287201 2.385566 0.82703519 0.1046656 -0.55232048 0.10588303
0.1024836 -0.017711103 2.4107468 0.34202725 -0.57486111 -0.74333853 0.22002825
0.10887444 0.033809368 2.3678415 0.68416935 0.18112913 -0.70647329 0.055642996
0.10899605 0.011632263 2.3814671 0.75830954 0.43014294 -0.48984045 0.100281
0.12270314 -0.049858738 2.3927963 0.76079673 0.23483896 -0.60501158 0.074626617
0.12450224 -0.11482961 2.4291608 0.029446142 0.99947965 0.013169598 0.16738762
0.12373978 -0.15875585 2.4581778 -0.37647945 -0.69067711 -0.61743683 0.12121832
0.13683052 -0.065420315 2.3797743 0.81015551 0.31725782 -0.49294582 0.10645016
0.13610066 -0.19437446 2.4568012 -0.38874802 -0.78077859 -0.48914194 0.11071797
0.1608696 -0.46093518 2.5672655 -0.25963536 -0.23161831 -0.93751931 0.02631711
0.16286899 -0.52757293 2.6025109 -0.33003077 -0.33872956 -0.88110274 0.027894225
0.16453135 -0.55379099 2.6138718 -0.25030839 -0.27452555 -0.92842954 0.024347283
0.16292548 -0.59893477 2.6428707 -0.36850524 -0.35435915 -0.85943788 0.062375236
0.16886334 -0.072867505 2.3292994 -0.77260351 -0.48752201 -0.40670142 0.081301592
0.16315116 -0.62861854 2.6599624 -0.40589365 -0.4334828 -0.80457634 0.030097475
0.17072222 -0.57650918 2.6172225 -0.35057843 -0.34912044 -0.86902803 0.071653269
0.16672175 -0.65944701 2.6715145 -0.45700681 -0.31708962 -0.83102286 0.029481104
0.18130279 -0.60529143 2.6145775 -0.22008345 -0.31848103 -0.92202669 0.031026475
0.18368234 -0.074831024 2.3064013 -0.84026361 -0.4472259 -0.30650613 0.037003167
0.1853051 -0.71354222 2.6691155 -0.49464685 -0.37023735 -0.78628802 0.036594998
0.19136988 -0.71432418 2.6592736 -0.3817637 -0.40949667 -0.82859462 0.027398957
0.19288267 -0.12063028 2.3190937 -0.86883235 -0.3867231 -0.30915302 0.04073935
0.21011086 -0.13016492 2.2955809 -0.87643892 -0.095263511 -0.47199541 0.03829189
0.21995378 -0.14054598 2.2852802 -0.85726827 -0.11218619 -0.50249916 0.03615246
0.21904308 -0.17533299 2.3082075 -0.5252189 0.72832781 -0.44009507 0.14223833
0.23273733 -0.16383606 2.2786927 -0.65964252 0.013406851 -0.75145984 0.13993874
0.24463306 -0.18634245 2.2724819 -0.79533762 -0.19148223 -0.57512832 0.0046095047
0.24684553 -0.15684129 2.2509565 -0.79934365 -0.33564463 -0.49838969 0.0078324461
0.26269782 -0.21734568 2.2609737 -0.82844269 -0.41023183 -0.38130382 0.076574333
0.28781006 -0.18397938 2.1992745 -0.79101235 -0.38974699 -0.47158951 0.020435225
0.30071816 -0.16404259 2.1651657 -0.75870323 -0.3900207 -0.52177894 0.018414015
0.30848745 -0.15579656 2.1487074 -0.75870311 -0.39002073 -0.52177906 0.018414037
-0.37870735 -0.1313386 2.6524212 -0.52011615 -0.60390335 -0.60397023 0.027966993
-0.36969587 -0.1737244 2.6578987 -0.53129387 -0.54448175 -0.64905041 0.029628176
-0.36014223 -0.17075594 2.6525862 -0.51914835 -0.6033206 -0.60538346 0.030173978
-0.35312799 -0.20913444 2.6704152 -0.49311888 -0.52467763 -0.69393599 0.035747029
-0.3623462 -0.22104335 2.6804206 -0.47123146 -0.52027059 -0.71222144 0.039352212
-0.35329238 -0.2200575 2.6749883 -0.47123137 -0.52027059 -0.7122215 0.039352182
0.11535507 0.13359182 2.3809242 0.24143858 0.8990913 -0.3651605 0.15409149
0.053132541 0.074117288 2.4191012 0.73877829 -0.67394567 0.0019627179 0.12461575
0.066533104 0.059155267 2.4160736 -0.54609746 -0.48369205 -0.68397331 0.10945518
0.065473758 0.046420421 2.420176 -0.65133452 -0.30144471 -0.6963436 0.093261376
0.15561831 0.10228117 2.3716421 0.055958942 -0.65408927 -0.75434458 0.1643303
-0.32569066 -0.30543613 2.6929584 -0.39787537 -0.29098225 -0.87007153 0.00091381767
0.20974658 0.11697446 2.3514738 -0.32175463 -0.83785474 -0.44099146 0.15466511
0.1561328 0.074896649 2.3782098 0.63826996 0.05799171 -0.76762515 0.16724555
0.21891202 0.10098178 2.3514411 -0.41217318 -0.76003271 -0.50245744 0.16512235
0.10574611 0.011677575 2.4120212 0.56613547 0.06276834 -0.8219189 0.19459032
0.022373823 -0.089783214 2.4735265 0.013583736 0.86800295 -0.49637324 0.12191408
-0.10887773 -0.21513264 2.5551386 0.052825116 -0.77764529 -0.6264801 0.032687478
0.066647425 -0.085357182 2.4529002 -0.81413144 0.026991399 -0.58005297 0.25760865
-0.26870969 -0.38505939 2.6930969 -0.396882 -0.29121312 -0.87044793 0.00093239965
-0.14500634 -0.26620311 2.5831447 0.19806524 -0.70335472 -0.68268758 0.028847858
0.068358682 -0.10172012 2.4598987 -0.44414759 -0.74843985 -0.49251473 0.15314397
-0.063376099 -0.21443965 2.5390799 -0.026456542 -0.72130889 -0.69210804 0.032691546
0.056886803 -0.12051784 2.4695678 -0.051538222 -0.73732346 -0.67357105 0.16940917
0.08052092 -0.10490022 2.4551392 -0.4584817 -0.74600804 -0.48297682 0.17694169
-0.16619799 -0.30439043 2.6049101 -0.36348742 -0.59163141 -0.71961731 0.044937897
-0.096416816 -0.25308043 2.5660994 0.12506996 -0.74553984 -0.65462047 0.028876882
-0.14944686 -0.29882401 2.5968499 -0.020343503 -0.76576996 -0.64279276 0.046747278
0.24450013 0.011011851 2.3632576 0.58860338 -0.63398236 -0.50160998 0.14935215
0.081618711 -0.12216006 2.4601679 -0.39917213 -0.75049591 -0.52670455 0.16144536
0.060428649 -0.14397861 2.4747164 0.53485733 0.83721596 -0.11400467 0.16951066
0.16073257 -0.070614062 2.4048338 0.58144981 0.4443928 -0.68149185 0.080245689
0.10253856 -0.12881923 2.4536951 -0.64642924 -0.56426197 -0.51355392 0.11972444
0.094988413 -0.13707924 2.4572937 -0.63737053 -0.59561628 -0.48887634 0.13972238
-0.19107905 -0.37423646 2.6395919 -0.39619094 -0.28934076 -0.87138659 0.00099549815
-0.06158505 -0.27741742 2.5620768 -0.18700296 -0.6660338 -0.72210026 0.026167097
-0.039824426 -0.26190624 2.5463376 -0.12849 -0.66386795 -0.73672903 0.031116081
-0.12434881 -0.33403623 2.6024597 -0.24664634 -0.44666162 -0.86003423 0.0053470358
0.081342749 -0.16602659 2.4724417 -0.76788324 -0.62913907 -0.120579 0.099879906
-0.045756675 -0.27255738 2.552644 -0.17397852 -0.50045717 -0.8481003 0.0066246325
-0.044365827 -0.28282577 2.5576396 -0.18446006 -0.40111497 -0.89726317 0.0016744604
-0.17688352 -0.43214977 2.6612086 -0.34034628 -0.36387318 -0.86704135 0.0075749247
0.092811748 -0.28495547 2.5473576 -0.20248957 -0.49840674 -0.84296417 0.0070427288
0.13326161 -0.27844322 2.5304101 -0.27018178 -0.48413622 -0.83223432 0.0085649956
0.084355995 -0.32721391 2.5657911 -0.13734867 -0.36197874 -0.92201239 0.0052658939
0.204457 -0.2120202 2.4607911 -0.037146486 -0.27736747 -0.96004558 0.13894132
0.083548054 -0.35403249 2.5777104 -0.2478082 -0.29331937 -0.92333895 0.012409874
0.095558994 -0.36923605 2.5768859 -0.24780804 -0.29331934 -0.92333895 0.012409907
0.22987773 -0.23676871 2.4575694 -0.57343739 -0.42957678 -0.69759113 0.065212645
0.2190609 -0.25447839 2.4689894 -0.55234557 -0.50209427 -0.6654439 0.020298922
0.09725564 -0.38459468 2.5821795 -0.23463009 -0.28657043 -0.92888427 0.013450382
0.12626335 -0.36955526 2.5656838 -0.23312125 -0.29352608 -0.92709053 0.01352457
0.094947793 -0.39903229 2.5890934 -0.23526207 -0.3087678 -0.92158246 0.014869433
0.18151239 -0.34819508 2.5383456 -0.31312576 -0.37855929 -0.87100232 0.018475987
0.10203232 -0.43523499 2.6001012 -0.28859192 -0.30768207 -0.90666777 0.011795166
0.26519549 -0.26642814 2.4324818 -0.64386612 -0.57616955 -0.50345314 0.043288756
0.11243272 -0.44699365 2.5999529 -0.27876252 -0.30448413 -0.91081327 0.012897229
0.10728213 -0.45397276 2.6051271 -0.28573868 -0.30946022 -0.90696627 0.01362901
0.31034571 -0.20935321 2.3354692 -0.69836456 -0.71448779 -0.042357732 0.10814615
0.20406222 -0.40006638 2.5501001 -0.19676448 -0.24488568 -0.94937599 0.020562682
0.12406529 -0.48020998 2.6093502 -0.44512936 -0.34734628 -0.8253547 0.013793103
0.1969762 -0.41785431 2.5583811 -0.2263819 -0.27483806 -0.93445992 0.0236212
0.28965077 -0.31725633 2.4345689 -0.68679523 -0.46742967 -0.55661643 0.046840478
0.1204493 -0.52922457 2.6295798 -0.4290314 -0.32073307 -0.84443015 0.046303183
0.15457448 -0.50539064 2.6070323 -0.33241835 -0.34376919 -0.87824869 0.025337616
0.13044052 -0.53794533 2.6283679 -0.40632093 -0.37370691 -0.83381432 0.05469526
0.30280817 -0.3374697 2.4333844 -0.6709621 -0.49580726 -0.55134839 0.043996979
0.20727864 -0.47178173 2.5732026 -0.16616957 -0.27856776 -0.94593221 0.025578028
0.12590429 -0.54698998 2.6340547 -0.44543269 -0.38390854 -0.80882871 0.056052089
0.23071992 -0.45702583 2.5638833 -0.19924675 -0.2528761 -0.94675994 0.020368954
0.15217081 -0.52988404 2.6171629 -0.27580103 -0.26226008 -0.92474514 0.024310008
0.31278065 -0.34588748 2.4303839 -0.6705578 -0.55111313 -0.49661502 0.039731011
0.13018835 -0.56919128 2.641814 -0.49748048 -0.37285909 -0.78325552 0.053390112
0.15245992 -0.55267125 2.6261687 -0.39530981 -0.37268305 -0.83954602 0.061265979
0.39544338 -0.23222345 2.2917039 -0.90822476 -0.22291176 -0.35417256 0.18223754
0.3062138 -0.40221906 2.482111 -0.59180599 -0.38798741 -0.706563 0.0050802194
0.1414694 -0.58663636 2.6428587 -0.4925046 -0.41218719 -0.76651227 0.053950176
0.30680346 -0.41218194 2.4858069 -0.58589572 -0.37439987 -0.71871483 0.0055416389
0.15096314 -0.58573562 2.6394725 -0.56625587 -0.37591219 -0.73351502 0.053774722
0.21937941 -0.53164589 2.5942302 -0.24437527 -0.3826344 -0.89099473 0.0089655044
0.13575903 -0.61340994 2.6576445 -0.5680182 -0.36251733 -0.73887515 0.034922443
0.21578154 -0.55356997 2.6021047 -0.23549405 -0.28675768 -0.92860782 0.011427264
0.34069997 -0.42867512 2.4776666 -0.56413513 -0.42047134 -0.7106021 0.0057131452
0.14431281 -0.64657736 2.6669011 -0.49633563 -0.37863323 -0.78120929 0.030947259
0.19819811 -0.60555857 2.6293948 -0.16508038 -0.32793561 -0.93016487 0.025548905
0.27294371 -0.54643214 2.585403 -0.34260893 -0.30778727 -0.88762945 0.027238339
0.14556731 -0.66000217 2.6720243 -0.48575646 -0.32691979 -0.81065655 0.027311262
0.38701898 -0.38246605 2.405628 -0.63018227 -0.53007966 -0.56734985 0.037924249
0.27703774 -0.55646032 2.587739 -0.32433659 -0.35006207 -0.8787846 0.015187535
0.14967419 -0.67300892 2.6753709 -0.53714973 -0.38760823 -0.7491529 0.033649135
0.20342569 -0.6239354 2.6343765 -0.27146715 -0.38454607 -0.88228679 0.027529405
0.2779406 -0.56790417 2.5917907 -0.32152507 -0.38270921 -0.86611503 0.017732866
0.18345751 -0.65956873 2.6566541 -0.36445245 -0.2462606 -0.89807022 0.035995711
0.30670175 -0.5329982 2.5297322 -0.4763107 -0.38941106 -0.7883445 0.006892968
0.226824 -0.6400488 2.6322417 -0.27917424 -0.35465437 -0.89234638 0.019980738
0.35698304 -0.49774051 2.4959435 -0.51061571 -0.46390978 -0.72391927 0.0048699589
0.15912984 -0.71710318 2.6898158 -0.49119106 -0.37789303 -0.7848109 0.037294656
0.38998291 -0.4456062 2.4188371 -0.58524543 -0.56513304 -0.58147442 0.042702567
0.17752543 -0.71841538 2.6811368 -0.47631529 -0.35425195 -0.8047542 0.034791391
0.24237594 -0.67660749 2.6413863 -0.14862882 -0.28811917 -0.94598985 0.0068080737
0.42600465 -0.4377172 2.4026165 -0.56310064 -0.52933836 -0.63460118 0.041015249
0.40691963 -0.45714065 2.4163065 -0.51950151 -0.57675803 -0.6304509 0.039282929
0.43650979 -0.44429827 2.3995302 -0.5026018 -0.55628508 -0.66176903 0.032380648
0.42747274 -0.4560661 2.4066999 -0.54944187 -0.58957094 -0.59204704 0.029010382
0.22022776 -0.73657525 2.6727509 -0.31969783 -0.36660567 -0.87372398 0.029815393
0.24916932 -0.71325654 2.6533575 -0.18560448 -0.29545826 -0.9371528 0.0095558362
0.27134201 -0.70318955 2.6436815 -0.21371754 -0.31348178 -0.92523187 0.0061663473
0.33716762 -0.65115249 2.6048038 -0.34912401 -0.34775394 -0.8701607 0.0078721978
0.24155958 -0.74231958 2.6663482 -0.29783529 -0.36963567 -0.88014978 0.024986096
0.43353331 -0.53641433 2.4805305 -0.53297472 -0.44578063 -0.71917844 0.0035875693
0.42562857 -0.57567024 2.498744 -0.53946036 -0.44198889 -0.71667868 0.0033949965
0.46140862 -0.55830795 2.4768488 -0.51845974 -0.44576067 -0.72972381 0.0040379739
0.24307549 -0.80580521 2.6918576 -0.33660713 -0.36348754 -0.86866128 0.012672605
0.32468852 -0.89233035 2.694232 -0.31956825 -0.36271384 -0.87539411 0.0071176132
0.25394624 -0.96948689 2.7552853 -0.31623009 -0.34192848 -0.88492 0.0041281353
0.57611799 -0.65078378 2.4283466 -0.53754109 -0.38930064 -0.74799365 0.0036993709
0.63464576 -0.59178364 2.3779998 -0.53182679 -0.40222645 -0.74523437 0.0041959519
0.5721103 -0.686342 2.4421411 -0.5387736 -0.37933162 -0.75221717 0.0032276053
0.56658387 -0.6937263 2.4467545 -0.5387736 -0.37933162 -0.75221705 0.0032275689
0.23598008 -1.0918802 2.7951047 -0.31622946 -0.34192878 -0.88492012 0.0041278782
0.67447048 -0.97286332 2.4930954 -0.50097072 -0.30437919 -0.81017387 0.00065046106
0.68288147 -0.9646278 2.4856982 -0.50097078 -0.30437934 -0.81017381 0.00065046101
0.68594003 -0.99237722 2.4955776 -0.50097078 -0.30437917 -0.81017381 0.00065040955
0.70064265 -1.0171405 2.4971955 -0.49939862 -0.29917368 -0.81307817 0.00063730654
0.68773896 -1.035473 2.5110159 -0.49775681 -0.29977432 -0.8138634 0.00066559942
0.68515611 -1.0637887 2.5198288 -0.49775675 -0.29977423 -0.81386334 0.00066559948
0.10856381 -0.3787809 2.5675745 -0.23312128 -0.29352608 -0.92709053 0.013524568
0.17743915 -0.59018189 2.6274176 -0.25321686 -0.24520601 -0.93581796 0.062614404
0.14308822 -0.64128333 2.6574645 -0.48502758 -0.42932341 -0.76185936 0.029625105
-0.69813603 -3.3265903 1.7198043 -0.15735413 0.39192668 -0.90643984 0.0098400768
0.16894408 -0.1265797 2.3930609 -0.59943652 -0.39604488 -0.69557482 0.17228685
